3189 3162 3144 3180 3247 3325 3362 3398 3414 3426 3476 3536 3588 3641 3747 3753 3758 3764 3773 3778 3786 3814 3844 3854 3810 3821 3837 3851 3857 3861 3854 3877 3892 3893 3902 3900 3925 3936 3945 3954 3972 3992 4015 4030 4055 4065 4086 4085 4096 4099 4121 4145 4160 4179 4197 4218 4227 4242 4257 4270 4276 4238 4187 4156 4106 4050 4017 4009 4024 4043 4007 3987 3933 3889 3875 3858 3859 3858 3852 3869 3879 3909 3908 3889 3869 3853 3836 3828 3803 3776 3759 3760 3762 3772 3769 3758 3746 3736 3745 3764 3797 3812 3849 3908 3931 3981 4006 4012 4034 4062 4068 4090 4125 4162 4201 4222 4237 4250 4283 4318 4343 4364 4364 4360 4376 4388 4422 4458 4491 4510 4525 4518 4494 4464 4436 4400 4390 4398 4419 4444 4459 4485 4500 4511 4483 4497 4537 4584 4621 4660 4689 4696 4688 4719 4712 4660 4597 4539 4520 4490 4458 4421 4394 4376 4323 4274 4230 4176 4145 4103 4069 4036 3992 3969 3935 3892 3861 3833 3818 3764 3714 3666 3622 3573 3578 3569 3556 3562 3553 3574 3602 3645 3648 3690 3727 3693 3669 3644 3596 3529 3478 3472 3448 3424 3410 3410 3386 3328 3275 3265 3264 3268 3269 3284 3294 3409 3446 3469 3456 3451 3462 3476 3488 3490 3483 3480 3479 3486 3504 3522 3514 3473 3458 3424 3396 3348 3314 3327 3320 3313 3301 3310 3302 3311 3322 3344 3390 3441 3435 3442 3463 3472 3488 3505 3518 3516 3491 3467 3450 3464 3491 3518 3525 3527 3493 3465 3463 3474 3519 3546 3562 3565 3561 3537 3538 3580 3617 3643 3660 3664 3683 3711 3745 3784 3806 3792 3796 3814 3817 3769 3696 3621 3540 3459 3380 3337 3358 3383 3422 3463 3493 3522 3568 3600 3660 3690 3718 3735 3726 3699 3670 3636 3613 3592 3569 3509 3456 3416 3386 3432 3474 3510 3587 3624 3659 3699 3741 3795 3823 3849 3875 3890 3919 3958 3965 3983 4001 3993 3998 4012 4038 4071 4074 4050 4014 3985 3979 3962 3947 3913 3934 3962 3970 3971 3957 3974 4001 4020 4011 3985 3969 3940 3927 3919 3926 3932 3946 3937 3915 3897 3871 3834 3800 3707 3682 3634 3603 3540 3464 3407 3429 3493 3540 3616 3666 3705 3716 3728 3745 3730 3730 3720 3733 3761 3773 3779 3793 3802 3814 3841 3862 3875 3883 3870 3837 3815 3821 3853 3894 3892 3897 3902 3905 3911 3942 3939 3919 3925 3914 3942 3989 4021 4046 4052 4086 4078 4093 4101 4081 4065 4056 4063 4032 4005 4045 4068 4106 4135 4150 4164 4191 4210 4204 4186 4170 4156 4146 4141 4138 4147 4158 4150 4163 4177 4191 4189 4180 4169 4151 4143 4135 4138 4148 4147 4155 4159 4170 4175 4180 4178 4178 4178 4189 4192 4194 4205 4216 4233 4257 4253 4258 4259 4239 4231 4217 4201 4187 4191 4179 4173 4167 4161 4158 4161 4155 4149 4151 4141 4128 4121 4138 4169 4195 4196 4164 4137 4143 4156 4164 4181 4203 4196 4193 4187 4187 4191 4179 4183 4187 4192 4190 4191 4193 4202 4196 4192 4190 4193 4194 4194 4192 4197 4200 4205 4213 4219 4227 4233 4232 4240 4245 4252 4264 4268 4278 4283 4268 4252 4260 4264 4270 4275 4287 4293 4294 4292 4290 4288 4280 4255 4256 4266 4262 4241 4244 4255 4276 4291 4291 4281 4255 4222 4188 4163 4140 4136 4141 4119 4094 4083 4076 4101 4121 4111 4081 4067 4049 4025 3980 3961 3953 3959 4001 4038 4062 4079 4086
3169 3157 3145 3189 3265 3339 3385 3424 3458 3485 3512 3559 3622 3675 3734 3780 3800 3801 3785 3802 3798 3824 3859 3861 3873 3853 3862 3878 3889 3888 3882 3898 3916 3920 3938 3930 3935 3962 3962 3967 3985 3995 4017 4036 4058 4082 4085 4091 4101 4119 4128 4149 4172 4185 4199 4213 4228 4231 4250 4260 4264 4231 4187 4158 4116 4063 4054 4030 4030 4007 3987 3969 3924 3917 3892 3875 3875 3874 3869 3885 3897 3919 3930 3897 3877 3854 3847 3826 3816 3790 3782 3774 3780 3784 3781 3771 3754 3754 3774 3811 3853 3870 3859 3909 3950 4009 4033 4047 4043 4050 4072 4084 4125 4165 4191 4197 4202 4239 4276 4302 4331 4341 4334 4341 4354 4367 4395 4429 4458 4466 4490 4531 4544 4524 4489 4457 4451 4465 4487 4500 4516 4518 4498 4501 4519 4546 4594 4639 4676 4718 4732 4730 4710 4710 4736 4725 4674 4628 4580 4546 4512 4480 4429 4393 4343 4298 4251 4201 4171 4139 4110 4063 4040 4005 3976 3931 3898 3873 3836 3791 3743 3694 3650 3631 3655 3643 3565 3636 3630 3675 3703 3774 3810 3844 3853 3804 3730 3699 3624 3590 3515 3504 3484 3478 3468 3488 3480 3417 3360 3306 3281 3284 3287 3277 3277 3268 3320 3375 3409 3416 3433 3452 3459 3468 3461 3468 3458 3465 3487 3490 3463 3430 3406 3366 3307 3288 3292 3324 3338 3349 3349 3355 3374 3387 3443 3528 3579 3555 3551 3519 3532 3547 3543 3547 3555 3559 3535 3503 3502 3514 3541 3574 3559 3555 3517 3495 3516 3504 3509 3546 3580 3591 3605 3601 3576 3599 3633 3671 3708 3745 3716 3776 3771 3805 3853 3842 3857 3840 3825 3758 3683 3604 3523 3446 3374 3326 3345 3374 3409 3459 3500 3529 3560 3595 3645 3690 3717 3741 3723 3696 3672 3631 3604 3592 3569 3521 3476 3429 3382 3400 3421 3450 3595 3627 3682 3701 3748 3795 3846 3876 3889 3915 3934 3938 3944 3947 3960 3970 3990 3990 3994 4032 4034 4013 3992 3976 3963 3958 3940 3914 3912 3943 3953 3951 3944 3969 3979 3982 3984 3979 3963 3950 3925 3903 3902 3904 3919 3913 3901 3899 3888 3846 3710 3661 3604 3556 3514 3488 3406 3412 3468 3543 3606 3672 3730 3771 3768 3743 3763 3748 3744 3733 3737 3758 3772 3790 3805 3805 3821 3845 3855 3872 3887 3887 3868 3837 3822 3831 3888 3930 3926 3920 3929 3925 3944 3981 3989 3985 3961 3961 3980 4003 4034 4070 4097 4113 4114 4127 4102 4108 4093 4101 4075 4057 4051 4095 4084 4133 4160 4176 4196 4207 4194 4182 4168 4159 4148 4144 4137 4134 4132 4139 4164 4184 4177 4165 4157 4147 4135 4131 4134 4141 4148 4156 4166 4171 4177 4182 4180 4170 4165 4169 4177 4185 4192 4211 4230 4245 4263 4263 4269 4267 4250 4236 4223 4220 4216 4202 4187 4175 4176 4172 4171 4168 4168 4160 4154 4140 4128 4120 4125 4146 4173 4176 4144 4137 4169 4182 4190 4191 4199 4198 4193 4186 4184 4181 4180 4181 4184 4183 4185 4191 4196 4198 4193 4190 4190 4189 4190 4190 4192 4192 4199 4204 4210 4215 4220 4221 4216 4221 4224 4230 4239 4243 4247 4252 4244 4224 4240 4249 4254 4254 4263 4279 4274 4271 4264 4259 4257 4237 4227 4236 4238 4216 4205 4213 4225 4251 4258 4247 4237 4202 4176 4155 4154 4155 4150 4137 4115 4085 4090 4125 4114 4083 4060 4043 4030 4004 3984 3959 3950 3958 3977 4011 4040 4065 4088
3160 3153 3148 3190 3262 3320 3373 3423 3464 3513 3551 3594 3640 3675 3743 3788 3820 3831 3825 3843 3835 3842 3861 3879 3882 3878 3900 3916 3912 3919 3914 3924 3940 3953 3963 3952 3955 3983 3975 3978 4007 4029 4047 4061 4077 4071 4085 4090 4103 4116 4123 4136 4159 4177 4189 4201 4214 4235 4258 4252 4250 4198 4174 4139 4103 4089 4073 4049 4022 4005 3987 3982 3935 3929 3913 3896 3894 3897 3898 3904 3917 3933 3926 3901 3875 3860 3852 3840 3831 3812 3814 3794 3786 3798 3792 3793 3778 3805 3843 3888 3918 3932 3889 3910 3943 3995 4054 4082 4083 4098 4126 4129 4117 4136 4158 4168 4195 4222 4259 4283 4303 4301 4312 4324 4334 4358 4375 4405 4418 4426 4463 4496 4521 4551 4552 4526 4499 4513 4537 4540 4544 4529 4488 4496 4527 4577 4620 4666 4701 4740 4757 4758 4752 4743 4728 4769 4782 4747 4663 4629 4583 4549 4514 4476 4408 4362 4304 4241 4220 4186 4159 4121 4080 4048 4007 3970 3933 3893 3855 3822 3769 3722 3702 3671 3680 3777 3772 3745 3760 3801 3842 3886 3904 3924 3889 3847 3776 3717 3669 3625 3605 3561 3526 3523 3525 3519 3498 3464 3391 3340 3354 3344 3326 3327 3316 3277 3268 3299 3358 3372 3395 3414 3417 3409 3416 3421 3427 3430 3446 3461 3443 3399 3371 3346 3285 3312 3338 3383 3408 3444 3467 3477 3479 3509 3535 3575 3622 3603 3581 3598 3606 3591 3603 3627 3630 3617 3603 3593 3573 3584 3613 3634 3630 3573 3539 3522 3549 3553 3533 3542 3581 3608 3634 3648 3643 3658 3656 3700 3736 3777 3805 3820 3824 3830 3875 3898 3903 3864 3808 3741 3668 3588 3506 3429 3364 3330 3349 3380 3412 3465 3513 3544 3571 3610 3650 3691 3720 3734 3714 3678 3644 3629 3616 3603 3565 3513 3466 3436 3417 3378 3384 3433 3544 3613 3672 3719 3749 3801 3847 3883 3899 3909 3915 3897 3919 3910 3929 3958 3970 3965 3977 4007 4022 4004 3986 3970 3952 3940 3929 3906 3898 3921 3933 3932 3937 3943 3948 3952 3957 3966 3962 3952 3936 3916 3900 3880 3882 3883 3884 3867 3833 3748 3676 3644 3581 3533 3482 3427 3410 3440 3506 3583 3649 3707 3766 3808 3815 3780 3783 3773 3761 3742 3734 3756 3777 3783 3805 3821 3821 3842 3869 3878 3900 3898 3888 3871 3849 3832 3848 3919 3956 3976 3992 3985 4010 4013 4053 4040 4021 4007 3989 4000 4029 4066 4106 4134 4132 4140 4115 4130 4121 4134 4116 4098 4097 4120 4125 4144 4158 4177 4199 4219 4205 4187 4178 4167 4158 4147 4140 4132 4131 4143 4166 4174 4160 4156 4136 4126 4132 4133 4141 4155 4166 4173 4178 4167 4162 4158 4159 4160 4161 4169 4185 4198 4210 4222 4236 4247 4263 4287 4286 4280 4270 4254 4240 4233 4226 4205 4203 4193 4190 4179 4173 4174 4167 4159 4153 4142 4133 4133 4124 4123 4145 4131 4134 4152 4173 4196 4213 4211 4198 4192 4196 4194 4189 4184 4182 4177 4177 4181 4184 4192 4189 4187 4183 4185 4184 4185 4187 4189 4189 4194 4197 4206 4212 4207 4200 4202 4209 4215 4218 4213 4216 4213 4228 4224 4220 4212 4212 4214 4213 4218 4235 4255 4267 4251 4245 4242 4237 4223 4209 4214 4213 4206 4196 4187 4196 4217 4214 4206 4209 4201 4174 4173 4175 4159 4130 4105 4081 4086 4114 4123 4089 4064 4045 4029 4031 4028 4012 3976 3950 3949 3962 4016 4032 4049 4076
3149 3143 3146 3192 3254 3302 3354 3404 3454 3505 3553 3599 3650 3708 3757 3803 3819 3844 3852 3847 3845 3859 3873 3899 3900 3896 3898 3906 3920 3939 3947 3941 3958 3968 3982 3986 3985 3997 4010 4008 4018 4050 4071 4090 4096 4089 4078 4093 4106 4118 4135 4147 4155 4182 4194 4197 4225 4244 4254 4238 4232 4202 4171 4128 4104 4108 4089 4063 4029 4026 4018 3965 3952 3939 3915 3917 3922 3921 3923 3941 3938 3951 3940 3913 3890 3885 3874 3864 3839 3838 3860 3819 3809 3811 3812 3802 3810 3855 3892 3909 3933 3957 3929 3921 3949 3988 4036 4099 4115 4102 4135 4142 4141 4154 4171 4167 4183 4199 4223 4249 4261 4273 4296 4310 4327 4340 4354 4375 4371 4392 4426 4467 4488 4511 4517 4519 4529 4549 4559 4572 4563 4514 4489 4495 4527 4579 4636 4669 4705 4746 4775 4788 4782 4777 4774 4775 4788 4822 4808 4758 4676 4621 4587 4549 4491 4438 4376 4304 4258 4222 4187 4156 4134 4089 4060 3993 3947 3908 3867 3824 3799 3743 3763 3742 3715 3766 3798 3828 3835 3858 3879 3928 3963 3962 3925 3875 3815 3799 3761 3684 3674 3631 3577 3576 3562 3536 3493 3428 3392 3399 3411 3390 3371 3369 3358 3337 3289 3276 3298 3325 3349 3350 3344 3344 3346 3363 3369 3385 3407 3427 3414 3395 3365 3319 3302 3343 3391 3444 3500 3555 3585 3604 3614 3660 3685 3687 3697 3669 3653 3645 3647 3633 3644 3669 3675 3664 3639 3623 3628 3640 3670 3687 3662 3598 3575 3573 3588 3591 3579 3554 3586 3627 3657 3670 3672 3679 3672 3713 3758 3786 3813 3841 3864 3900 3905 3926 3884 3844 3786 3719 3650 3575 3496 3414 3358 3335 3374 3392 3416 3482 3529 3576 3607 3633 3663 3685 3699 3716 3713 3675 3645 3627 3599 3575 3547 3513 3481 3449 3426 3402 3380 3373 3503 3569 3648 3726 3758 3807 3846 3868 3888 3881 3881 3871 3903 3888 3917 3934 3939 3953 3970 4000 4019 4006 3982 3965 3952 3934 3920 3911 3892 3892 3904 3903 3904 3923 3923 3934 3940 3952 3961 3947 3937 3918 3892 3884 3869 3853 3847 3817 3777 3705 3664 3609 3578 3535 3464 3431 3418 3458 3534 3615 3677 3732 3792 3844 3857 3838 3804 3796 3769 3744 3735 3745 3763 3781 3805 3827 3830 3845 3862 3887 3910 3923 3913 3904 3885 3853 3837 3853 3932 3970 4001 4014 4023 4040 4058 4084 4083 4062 4045 4053 4078 4089 4114 4142 4161 4152 4147 4151 4140 4149 4150 4134 4128 4133 4146 4150 4173 4194 4204 4211 4219 4203 4184 4172 4159 4144 4139 4134 4131 4126 4140 4150 4137 4137 4133 4126 4126 4136 4139 4146 4149 4153 4160 4152 4150 4150 4154 4159 4163 4165 4174 4185 4199 4220 4249 4257 4270 4285 4287 4290 4282 4259 4253 4241 4226 4224 4217 4208 4202 4200 4192 4182 4168 4154 4146 4140 4132 4130 4118 4115 4126 4129 4148 4174 4194 4211 4196 4197 4197 4204 4204 4200 4189 4184 4177 4176 4175 4178 4180 4189 4190 4183 4181 4184 4181 4180 4183 4183 4185 4196 4199 4200 4202 4190 4187 4195 4196 4206 4205 4197 4190 4194 4202 4209 4205 4195 4179 4186 4185 4197 4221 4240 4248 4238 4226 4228 4223 4202 4197 4200 4190 4177 4186 4176 4187 4178 4177 4173 4186 4201 4191 4181 4157 4125 4099 4095 4105 4125 4134 4119 4085 4056 4042 4034 4016 3996 3987 3970 3950 3956 3986 4027 4062 4086 4080
3143 3151 3143 3190 3235 3284 3330 3379 3441 3503 3548 3596 3665 3746 3767 3790 3813 3825 3842 3867 3867 3878 3886 3904 3913 3905 3911 3920 3933 3949 3972 3965 3977 4001 4018 4013 4006 4001 4033 4050 4057 4062 4087 4089 4092 4089 4104 4114 4120 4126 4143 4161 4173 4200 4195 4205 4219 4238 4254 4233 4218 4191 4153 4120 4109 4110 4103 4069 4054 4032 3995 3972 3970 3957 3935 3931 3930 3937 3937 3958 3976 3969 3952 3920 3917 3903 3892 3876 3864 3900 3911 3869 3842 3830 3826 3832 3861 3892 3937 3944 3941 3958 3961 3941 3947 4012 4056 4099 4130 4131 4137 4143 4150 4147 4159 4172 4183 4198 4215 4229 4236 4255 4269 4296 4308 4322 4337 4342 4345 4372 4404 4449 4458 4471 4474 4483 4512 4560 4586 4589 4558 4505 4480 4499 4517 4562 4610 4648 4693 4733 4762 4789 4815 4827 4826 4819 4827 4837 4848 4843 4812 4734 4679 4615 4555 4492 4425 4353 4296 4264 4239 4209 4163 4132 4084 4043 3986 3956 3902 3856 3815 3813 3835 3818 3800 3793 3817 3861 3904 3919 3947 3974 3997 3971 3945 3909 3879 3849 3861 3838 3773 3700 3653 3638 3605 3563 3516 3464 3437 3448 3454 3440 3419 3406 3399 3394 3369 3304 3274 3279 3298 3297 3289 3290 3293 3311 3325 3348 3353 3372 3389 3389 3334 3271 3316 3377 3443 3514 3585 3641 3679 3717 3736 3735 3748 3745 3726 3699 3683 3683 3696 3685 3699 3705 3704 3690 3667 3666 3683 3698 3713 3705 3695 3658 3624 3606 3619 3633 3619 3588 3591 3622 3661 3686 3704 3710 3716 3732 3769 3808 3842 3883 3916 3942 3938 3894 3842 3804 3756 3696 3633 3569 3494 3410 3353 3359 3389 3418 3451 3510 3567 3604 3626 3633 3644 3653 3676 3696 3707 3702 3662 3618 3583 3552 3534 3506 3485 3449 3422 3383 3373 3402 3455 3526 3555 3740 3769 3808 3841 3877 3872 3856 3845 3868 3882 3879 3891 3903 3931 3951 3969 3992 4018 4004 3983 3959 3951 3937 3924 3907 3892 3865 3887 3880 3879 3905 3912 3923 3923 3940 3962 3949 3933 3918 3907 3892 3876 3856 3846 3808 3791 3702 3661 3628 3561 3527 3463 3414 3418 3464 3542 3621 3688 3751 3809 3874 3889 3853 3835 3807 3783 3774 3765 3756 3769 3781 3791 3812 3844 3842 3856 3891 3917 3937 3938 3937 3921 3877 3854 3842 3864 3926 3942 3957 3980 3995 4010 4044 4066 4087 4093 4095 4115 4103 4142 4158 4172 4173 4167 4168 4167 4162 4161 4163 4163 4155 4156 4167 4176 4190 4204 4222 4223 4207 4191 4177 4163 4152 4143 4132 4129 4127 4127 4129 4129 4128 4125 4130 4125 4132 4132 4135 4136 4143 4145 4148 4150 4155 4155 4157 4164 4167 4169 4178 4185 4205 4217 4230 4248 4259 4286 4294 4284 4269 4256 4233 4223 4213 4207 4198 4200 4212 4187 4173 4169 4157 4149 4138 4135 4129 4124 4116 4115 4134 4160 4181 4202 4188 4168 4166 4179 4197 4202 4192 4190 4179 4178 4175 4174 4177 4178 4180 4182 4179 4179 4180 4182 4179 4179 4185 4187 4188 4189 4190 4189 4185 4189 4195 4201 4203 4199 4178 4166 4173 4182 4182 4181 4168 4161 4163 4187 4202 4220 4227 4225 4221 4213 4221 4212 4193 4184 4175 4163 4156 4165 4162 4158 4148 4151 4147 4164 4181 4184 4158 4144 4131 4135 4124 4133 4134 4118 4101 4082 4067 4054 4047 4033 4019 3991 3951 3941 3959 4003 4037 4064 4085 4071
3145 3164 3185 3211 3226 3250 3298 3335 3427 3517 3533 3582 3663 3720 3770 3799 3828 3833 3843 3874 3882 3884 3889 3914 3933 3924 3928 3941 3959 3984 3996 4006 3994 4035 4054 4046 4042 4019 4034 4052 4077 4077 4079 4094 4104 4108 4114 4138 4143 4145 4159 4172 4189 4203 4215 4227 4238 4252 4242 4212 4199 4175 4134 4121 4124 4128 4119 4090 4069 4046 4017 3993 3993 3974 3959 3946 3952 3951 3958 3975 3989 3976 3945 3926 3912 3916 3900 3881 3891 3939 3961 3921 3876 3857 3858 3863 3897 3927 3946 3970 3968 3971 3989 3972 3952 4026 4075 4109 4121 4142 4154 4150 4158 4173 4175 4179 4180 4184 4199 4210 4213 4230 4259 4278 4290 4314 4320 4318 4326 4356 4393 4425 4431 4435 4453 4476 4498 4531 4537 4545 4524 4480 4478 4494 4521 4559 4602 4649 4687 4729 4758 4795 4829 4853 4860 4860 4864 4870 4890 4922 4894 4841 4761 4688 4619 4541 4464 4390 4330 4305 4281 4261 4220 4182 4127 4076 4028 3997 3972 3907 3868 3849 3873 3888 3870 3854 3864 3907 3947 3997 4012 4030 4053 4038 4000 3962 3938 3927 3911 3886 3840 3779 3735 3697 3650 3598 3548 3506 3494 3493 3484 3470 3459 3449 3445 3440 3416 3381 3326 3323 3328 3314 3300 3288 3283 3280 3290 3301 3309 3336 3349 3337 3290 3288 3335 3414 3495 3573 3643 3697 3742 3778 3812 3793 3784 3756 3742 3722 3715 3731 3740 3741 3732 3742 3735 3712 3697 3693 3711 3735 3755 3736 3716 3686 3649 3639 3663 3678 3684 3680 3637 3629 3659 3704 3739 3751 3761 3771 3775 3820 3859 3898 3936 3955 3917 3865 3810 3757 3719 3686 3632 3575 3501 3418 3363 3359 3401 3447 3492 3526 3576 3597 3613 3612 3615 3625 3660 3666 3682 3684 3662 3634 3609 3570 3539 3513 3491 3462 3425 3372 3371 3415 3448 3509 3544 3671 3759 3798 3858 3872 3856 3834 3838 3867 3855 3862 3880 3917 3920 3925 3945 3962 3988 4008 3989 3975 3958 3946 3927 3905 3893 3859 3869 3862 3853 3871 3885 3893 3915 3927 3951 3967 3953 3938 3915 3900 3882 3857 3847 3828 3784 3739 3674 3615 3558 3504 3439 3407 3426 3481 3552 3629 3696 3759 3816 3867 3906 3887 3851 3826 3824 3810 3815 3811 3805 3799 3802 3814 3844 3868 3882 3886 3919 3958 3992 3983 3953 3910 3884 3857 3856 3867 3881 3906 3911 3920 3965 3990 4027 4041 4058 4070 4093 4111 4127 4134 4157 4179 4177 4170 4161 4158 4156 4158 4159 4163 4169 4177 4185 4181 4187 4209 4218 4209 4201 4189 4166 4150 4150 4135 4127 4124 4125 4120 4121 4123 4122 4130 4129 4133 4133 4127 4134 4136 4139 4149 4156 4156 4162 4165 4170 4180 4178 4191 4193 4200 4209 4219 4245 4268 4287 4302 4291 4278 4255 4235 4221 4208 4199 4189 4185 4195 4195 4197 4183 4169 4165 4154 4144 4135 4122 4119 4112 4120 4146 4176 4184 4151 4144 4142 4157 4184 4193 4189 4186 4181 4176 4176 4175 4171 4175 4175 4172 4171 4174 4174 4176 4175 4176 4185 4181 4180 4185 4191 4184 4183 4182 4191 4199 4205 4200 4183 4159 4140 4137 4132 4140 4138 4138 4151 4180 4196 4204 4203 4196 4201 4206 4209 4195 4181 4172 4174 4151 4138 4152 4146 4131 4125 4129 4129 4145 4147 4160 4170 4167 4164 4154 4146 4130 4106 4090 4065 4048 4039 4045 4047 4030 4010 3989 3949 3937 3956 4009 4047 4072 4084 4055
3148 3178 3213 3234 3266 3259 3297 3340 3413 3468 3493 3538 3634 3709 3768 3804 3832 3864 3860 3873 3884 3888 3897 3921 3941 3941 3971 3977 3998 4024 4044 4034 4029 4050 4067 4064 4060 4045 4043 4058 4087 4092 4094 4101 4110 4121 4140 4153 4166 4157 4177 4195 4193 4202 4218 4238 4251 4263 4242 4202 4185 4165 4152 4144 4140 4146 4125 4112 4086 4054 4023 4011 3997 3983 3979 3974 3966 3970 3974 3983 3983 3969 3944 3944 3938 3930 3920 3899 3931 3978 4020 3999 3949 3911 3890 3911 3945 3967 3983 3980 4000 4000 4000 3983 3973 4012 4068 4096 4109 4118 4128 4139 4143 4159 4159 4157 4159 4169 4179 4185 4192 4208 4232 4247 4268 4291 4297 4300 4313 4341 4377 4412 4418 4435 4461 4492 4507 4497 4489 4489 4476 4471 4478 4503 4531 4563 4614 4649 4692 4739 4771 4796 4825 4859 4886 4895 4898 4903 4916 4927 4926 4897 4827 4763 4689 4603 4519 4444 4378 4336 4309 4277 4245 4185 4147 4087 4048 4040 4011 3993 3951 3898 3924 3944 3942 3929 3926 3945 3988 4025 4080 4108 4117 4086 4052 4018 4000 4000 3973 3951 3910 3845 3798 3753 3700 3643 3597 3571 3554 3562 3542 3513 3499 3487 3508 3527 3498 3461 3420 3406 3401 3364 3306 3312 3301 3274 3279 3277 3281 3292 3304 3284 3281 3313 3395 3453 3537 3618 3681 3734 3778 3825 3841 3818 3792 3774 3763 3751 3762 3780 3779 3775 3767 3768 3756 3738 3731 3735 3752 3774 3782 3766 3745 3711 3686 3676 3688 3718 3733 3742 3727 3704 3706 3724 3757 3779 3797 3806 3820 3838 3874 3912 3940 3960 3872 3846 3769 3701 3690 3665 3650 3596 3516 3430 3370 3355 3382 3428 3470 3496 3519 3538 3557 3570 3573 3590 3621 3641 3651 3647 3629 3603 3602 3615 3582 3539 3526 3497 3444 3393 3349 3380 3427 3486 3521 3553 3639 3796 3824 3821 3830 3818 3832 3864 3854 3844 3860 3889 3899 3918 3948 3958 3975 4003 4008 3989 3964 3935 3923 3914 3897 3880 3851 3844 3829 3849 3859 3875 3897 3919 3940 3971 3970 3950 3923 3910 3901 3873 3845 3823 3780 3726 3658 3586 3531 3451 3408 3414 3451 3518 3586 3650 3709 3770 3828 3872 3920 3921 3886 3859 3846 3832 3841 3842 3835 3819 3818 3819 3844 3878 3898 3914 3936 3980 4014 4022 3977 3928 3887 3861 3893 3902 3914 3918 3907 3907 3915 3929 3943 3965 3998 4021 4048 4063 4088 4118 4144 4161 4175 4163 4153 4150 4142 4153 4162 4160 4169 4176 4166 4162 4173 4176 4187 4186 4196 4186 4172 4161 4151 4141 4133 4123 4127 4116 4116 4120 4126 4124 4128 4131 4137 4132 4134 4137 4138 4147 4154 4161 4167 4172 4178 4187 4194 4211 4221 4216 4215 4228 4238 4266 4279 4285 4285 4278 4260 4250 4231 4216 4206 4190 4196 4176 4199 4196 4193 4193 4176 4159 4148 4132 4121 4116 4109 4108 4134 4162 4146 4137 4122 4141 4156 4186 4199 4187 4185 4186 4184 4177 4175 4169 4169 4168 4171 4172 4174 4176 4174 4172 4174 4181 4174 4184 4183 4184 4181 4177 4189 4195 4189 4193 4194 4179 4157 4116 4110 4111 4125 4118 4117 4136 4176 4174 4169 4180 4183 4190 4201 4202 4190 4173 4157 4153 4148 4131 4147 4146 4120 4110 4118 4125 4124 4118 4147 4175 4186 4176 4158 4134 4109 4078 4078 4074 4066 4039 4015 4032 4020 4008 3980 3951 3937 3945 4024 4041 4056 4076 4064
3169 3210 3248 3253 3270 3281 3292 3331 3388 3450 3514 3580 3642 3705 3759 3799 3833 3864 3879 3877 3890 3894 3908 3929 3954 3982 3993 4019 4032 4047 4060 4060 4057 4056 4058 4069 4058 4064 4066 4068 4075 4088 4104 4118 4123 4135 4149 4169 4174 4191 4206 4210 4207 4210 4222 4240 4268 4266 4235 4227 4205 4191 4182 4157 4157 4155 4136 4108 4082 4052 4038 4017 4006 4009 4003 3993 3988 3983 3993 3994 3984 3970 3955 3951 3961 3951 3924 3928 3971 4022 4062 4086 4042 3990 3980 3981 3987 3994 4003 4001 4017 4017 4007 4004 3999 4002 4029 4052 4066 4083 4097 4107 4126 4142 4142 4157 4161 4181 4202 4191 4194 4209 4214 4235 4262 4281 4290 4295 4306 4323 4359 4381 4408 4433 4462 4485 4476 4457 4451 4447 4451 4461 4480 4513 4542 4583 4629 4668 4711 4745 4776 4803 4834 4856 4878 4896 4910 4920 4926 4936 4927 4913 4875 4834 4756 4685 4599 4529 4443 4357 4321 4284 4241 4200 4158 4122 4103 4071 4046 4005 3974 3972 3960 3979 3986 3977 3980 3997 4016 4065 4092 4128 4154 4129 4102 4069 4056 4050 4019 3985 3936 3890 3853 3808 3758 3704 3672 3625 3607 3604 3586 3565 3537 3534 3561 3561 3542 3513 3470 3436 3406 3364 3319 3310 3302 3299 3299 3303 3305 3288 3296 3287 3331 3402 3471 3531 3599 3658 3721 3784 3828 3868 3862 3844 3824 3801 3798 3804 3804 3813 3809 3814 3814 3801 3800 3787 3777 3792 3808 3823 3814 3795 3763 3742 3732 3725 3718 3726 3761 3781 3775 3776 3753 3767 3784 3798 3825 3841 3869 3885 3894 3929 3967 3971 3910 3857 3805 3766 3709 3685 3693 3628 3540 3444 3376 3332 3337 3365 3387 3431 3441 3456 3475 3502 3533 3559 3584 3598 3606 3605 3578 3571 3577 3590 3599 3592 3569 3519 3448 3398 3361 3348 3403 3447 3497 3527 3553 3770 3770 3777 3773 3795 3844 3861 3829 3811 3834 3873 3889 3920 3939 3960 3983 4000 4002 3963 3935 3923 3907 3900 3885 3876 3856 3824 3804 3826 3851 3883 3907 3929 3947 3969 3974 3960 3940 3939 3918 3889 3869 3833 3759 3698 3617 3540 3459 3412 3407 3438 3497 3565 3632 3688 3740 3797 3853 3897 3946 3963 3921 3884 3854 3840 3856 3857 3850 3841 3832 3847 3864 3883 3916 3934 3965 4007 4039 4046 3985 3944 3880 3882 3929 3945 3943 3948 3941 3925 3919 3917 3929 3925 3952 3970 4009 4047 4081 4113 4134 4153 4167 4166 4161 4146 4137 4149 4155 4164 4179 4170 4162 4145 4152 4151 4157 4174 4196 4190 4174 4167 4158 4141 4135 4127 4120 4112 4112 4118 4128 4129 4127 4133 4142 4143 4138 4142 4143 4144 4157 4167 4179 4178 4180 4195 4214 4219 4235 4238 4232 4237 4252 4257 4277 4292 4290 4278 4267 4253 4240 4218 4203 4187 4175 4169 4169 4180 4199 4190 4179 4156 4145 4135 4130 4119 4119 4111 4117 4125 4120 4115 4132 4138 4159 4178 4191 4184 4185 4184 4182 4174 4171 4171 4165 4166 4167 4169 4170 4172 4170 4171 4174 4172 4170 4172 4174 4172 4169 4181 4184 4189 4181 4162 4152 4166 4162 4116 4101 4084 4100 4100 4108 4144 4154 4140 4147 4146 4169 4180 4202 4203 4188 4181 4162 4138 4128 4118 4131 4127 4106 4105 4100 4104 4106 4130 4162 4157 4161 4156 4149 4116 4083 4070 4041 4040 4037 4028 3994 3993 3974 3967 3945 3942 3937 3972 4005 4041 4057 4068 4064
3185 3239 3290 3298 3277 3291 3300 3319 3360 3421 3508 3614 3657 3708 3757 3799 3845 3872 3891 3892 3901 3924 3912 3944 3967 3996 4015 4033 4054 4070 4068 4058 4064 4057 4060 4057 4072 4085 4101 4097 4087 4093 4114 4129 4146 4163 4162 4183 4196 4210 4235 4228 4227 4233 4241 4259 4277 4273 4255 4234 4220 4198 4186 4173 4172 4161 4138 4114 4087 4069 4059 4056 4044 4040 4031 4017 4004 4003 4019 4009 3994 3980 3964 3964 3974 3966 3944 3956 4000 4054 4106 4142 4151 4083 4055 4041 4033 4030 4027 4024 4027 4027 4027 4036 4039 4021 4041 4074 4086 4087 4084 4099 4124 4137 4161 4179 4191 4199 4193 4201 4230 4235 4222 4227 4251 4277 4281 4306 4316 4323 4364 4375 4398 4420 4440 4445 4428 4425 4435 4444 4455 4474 4501 4528 4583 4617 4657 4688 4721 4752 4774 4795 4819 4837 4853 4879 4899 4918 4927 4931 4921 4899 4868 4838 4812 4757 4688 4618 4546 4472 4383 4340 4310 4281 4232 4183 4161 4127 4082 4072 4036 4009 4005 4010 4017 4010 4058 4065 4081 4097 4133 4157 4198 4181 4153 4138 4105 4072 4040 4013 3946 3915 3894 3864 3822 3771 3714 3673 3658 3646 3646 3641 3603 3590 3569 3551 3537 3541 3504 3462 3431 3407 3380 3345 3328 3308 3311 3311 3309 3301 3330 3344 3408 3476 3541 3589 3647 3696 3756 3816 3855 3871 3926 3917 3895 3862 3862 3858 3854 3850 3855 3858 3867 3862 3851 3848 3865 3868 3870 3866 3849 3821 3790 3779 3771 3773 3758 3744 3779 3807 3822 3811 3833 3851 3828 3829 3849 3866 3890 3926 3931 3950 3990 3978 3945 3882 3843 3797 3766 3757 3739 3671 3584 3488 3406 3357 3329 3321 3307 3327 3342 3356 3390 3439 3475 3493 3511 3520 3529 3516 3503 3505 3520 3532 3542 3541 3528 3485 3422 3383 3355 3334 3387 3430 3470 3507 3547 3597 3735 3742 3775 3774 3791 3812 3805 3795 3795 3880 3916 3917 3936 3949 3973 3984 3975 3963 3956 3942 3929 3911 3904 3893 3867 3834 3791 3807 3849 3883 3904 3928 3949 3941 3951 3965 3958 3950 3911 3902 3854 3798 3719 3651 3540 3473 3437 3412 3430 3483 3549 3618 3685 3742 3794 3843 3889 3938 3983 3993 3952 3895 3864 3865 3882 3879 3874 3857 3852 3861 3888 3912 3932 3966 4000 4031 4062 4035 3993 3917 3886 3905 3943 3977 3988 3999 3982 3971 3954 3944 3945 3986 3984 3987 3993 4011 4057 4119 4142 4161 4156 4149 4148 4144 4135 4142 4149 4163 4172 4170 4151 4141 4134 4137 4151 4176 4185 4188 4176 4163 4152 4143 4139 4129 4122 4114 4114 4122 4131 4133 4135 4134 4142 4152 4149 4151 4146 4150 4154 4171 4176 4195 4192 4201 4213 4235 4247 4254 4252 4262 4253 4266 4285 4287 4284 4273 4261 4242 4227 4208 4189 4185 4173 4163 4162 4168 4184 4197 4186 4168 4159 4134 4124 4119 4115 4111 4113 4109 4111 4127 4146 4155 4169 4171 4170 4165 4168 4178 4182 4176 4172 4172 4168 4164 4165 4164 4168 4169 4172 4170 4172 4174 4167 4161 4165 4171 4173 4176 4181 4186 4185 4177 4146 4113 4111 4105 4094 4079 4077 4088 4118 4133 4105 4119 4129 4141 4163 4190 4197 4185 4185 4182 4177 4157 4140 4118 4113 4113 4094 4096 4094 4095 4126 4137 4138 4118 4108 4120 4152 4143 4108 4089 4065 4041 4021 4003 3995 4001 3990 3986 3965 3937 3933 3958 3999 4023 4031 4055 4048
3181 3273 3332 3362 3337 3319 3337 3333 3367 3390 3491 3605 3662 3716 3772 3827 3871 3897 3918 3914 3929 3955 3945 3971 3980 4006 4027 4045 4066 4067 4065 4065 4064 4069 4067 4081 4095 4106 4122 4127 4114 4112 4123 4136 4159 4178 4193 4204 4210 4233 4233 4234 4242 4236 4247 4258 4272 4275 4274 4256 4236 4209 4196 4188 4180 4164 4147 4127 4112 4097 4086 4071 4076 4078 4076 4061 4047 4047 4045 4038 4012 3995 3983 3990 3988 3979 3974 3986 4027 4087 4134 4189 4204 4154 4118 4094 4072 4063 4055 4049 4043 4040 4038 4050 4054 4058 4048 4055 4091 4110 4109 4098 4114 4134 4154 4175 4196 4215 4224 4216 4234 4251 4255 4245 4242 4255 4271 4288 4314 4334 4357 4376 4403 4413 4412 4412 4418 4441 4456 4466 4480 4491 4524 4568 4603 4635 4662 4689 4720 4739 4748 4766 4785 4804 4830 4860 4885 4901 4914 4919 4906 4880 4842 4818 4822 4807 4760 4674 4623 4589 4523 4449 4407 4358 4303 4269 4224 4198 4156 4099 4081 4068 4072 4059 4084 4094 4106 4131 4137 4149 4164 4204 4228 4216 4194 4162 4126 4078 4053 4026 3998 3955 3911 3908 3897 3854 3771 3736 3715 3688 3676 3660 3635 3606 3573 3549 3604 3584 3525 3486 3463 3435 3421 3395 3364 3358 3352 3344 3329 3312 3322 3369 3438 3497 3561 3614 3644 3707 3745 3776 3828 3849 3895 3954 3938 3932 3930 3935 3907 3905 3904 3914 3922 3905 3895 3923 3926 3937 3933 3928 3885 3859 3831 3817 3813 3820 3812 3804 3795 3842 3870 3869 3877 3903 3903 3874 3884 3905 3929 3968 3972 3977 3999 4009 3971 3918 3870 3843 3813 3813 3794 3730 3654 3570 3473 3422 3398 3366 3348 3338 3325 3303 3315 3364 3400 3412 3420 3423 3421 3420 3417 3418 3425 3428 3432 3437 3432 3411 3382 3350 3321 3336 3347 3414 3450 3496 3530 3560 3659 3703 3745 3740 3748 3761 3768 3771 3806 3846 3884 3901 3905 3916 3941 3956 3966 3981 3970 3957 3944 3937 3927 3924 3902 3860 3804 3797 3820 3869 3919 3929 3933 3926 3926 3949 3953 3939 3909 3844 3773 3711 3644 3576 3522 3468 3430 3419 3468 3539 3610 3680 3746 3804 3852 3892 3943 3975 4009 4009 3975 3913 3891 3885 3907 3902 3907 3891 3872 3880 3910 3944 3962 4005 4026 4057 4088 4024 3969 3900 3908 3905 3929 3971 4008 4028 4041 4026 4010 3979 3947 3988 4019 4026 4037 4037 4051 4101 4135 4169 4173 4161 4151 4143 4137 4137 4155 4160 4171 4171 4164 4144 4131 4141 4152 4173 4182 4186 4188 4175 4159 4139 4136 4123 4125 4118 4116 4117 4130 4141 4139 4140 4148 4167 4165 4147 4155 4159 4162 4178 4191 4204 4210 4220 4232 4237 4257 4265 4276 4269 4272 4270 4274 4274 4266 4259 4258 4238 4221 4205 4200 4186 4176 4164 4156 4155 4179 4194 4183 4162 4151 4137 4138 4136 4127 4113 4109 4106 4107 4125 4142 4143 4163 4169 4145 4142 4147 4167 4179 4177 4173 4170 4166 4169 4168 4165 4169 4166 4165 4166 4168 4166 4162 4162 4163 4169 4177 4179 4183 4191 4181 4182 4166 4152 4130 4084 4073 4062 4076 4101 4117 4080 4069 4099 4140 4160 4169 4179 4190 4185 4174 4176 4162 4148 4133 4112 4097 4095 4092 4091 4090 4094 4129 4131 4106 4097 4076 4110 4144 4133 4124 4099 4064 4055 4049 4033 4040 4042 4028 4004 3983 3932 3939 3967 4001 4029 4049 4066 4047
3236 3321 3397 3433 3408 3369 3362 3401 3396 3417 3474 3582 3679 3743 3796 3853 3886 3904 3915 3932 3955 3958 3975 3991 3988 4008 4037 4049 4073 4073 4072 4063 4072 4096 4098 4103 4111 4129 4135 4140 4136 4126 4146 4153 4173 4194 4213 4227 4228 4212 4204 4204 4208 4216 4224 4238 4245 4256 4266 4250 4234 4224 4202 4202 4193 4179 4163 4142 4135 4117 4087 4082 4093 4100 4102 4099 4095 4086 4052 4053 4038 4014 3998 4003 4001 3995 3991 4010 4065 4120 4171 4228 4254 4223 4171 4124 4096 4086 4073 4061 4055 4057 4063 4079 4087 4080 4069 4065 4082 4099 4114 4121 4112 4127 4152 4175 4195 4204 4214 4234 4241 4253 4263 4267 4276 4264 4275 4289 4312 4341 4349 4375 4398 4399 4403 4423 4449 4480 4500 4505 4514 4525 4551 4587 4617 4644 4662 4670 4677 4700 4713 4732 4757 4789 4817 4839 4861 4880 4894 4896 4889 4861 4827 4791 4786 4820 4799 4765 4721 4636 4615 4574 4533 4460 4408 4374 4349 4292 4298 4198 4190 4149 4145 4124 4137 4127 4182 4183 4193 4205 4209 4237 4255 4242 4220 4185 4137 4101 4067 4045 4020 3982 3941 3948 3972 3956 3932 3830 3774 3754 3733 3706 3663 3635 3664 3673 3660 3601 3550 3504 3481 3486 3495 3452 3399 3388 3392 3399 3379 3340 3328 3335 3397 3444 3538 3589 3614 3664 3702 3739 3767 3801 3859 3937 3961 4025 4014 4016 3988 3984 3969 3965 3960 3948 3956 3989 4008 3992 3974 3951 3914 3891 3874 3861 3857 3865 3868 3856 3838 3873 3904 3924 3910 3929 3953 3967 3975 3953 3974 3989 4002 3999 4018 4032 4010 3963 3930 3910 3868 3857 3838 3787 3724 3653 3560 3488 3459 3435 3406 3386 3386 3358 3353 3355 3363 3365 3369 3369 3360 3355 3359 3361 3373 3372 3371 3373 3376 3372 3364 3327 3358 3370 3348 3353 3447 3480 3510 3544 3565 3642 3707 3695 3724 3742 3736 3742 3777 3813 3863 3873 3890 3901 3931 3944 3978 3984 3969 3954 3957 3955 3945 3936 3907 3912 3812 3792 3791 3821 3879 3919 3908 3904 3912 3926 3946 3909 3841 3754 3703 3632 3582 3534 3484 3446 3416 3440 3520 3606 3686 3758 3820 3869 3908 3952 3993 4023 4017 4013 3982 3940 3915 3913 3931 3926 3934 3920 3903 3898 3928 3976 4001 4014 4055 4081 4065 3996 3943 3935 3951 3924 3915 3950 3981 4025 4071 4078 4048 4021 3997 3981 4026 4051 4081 4074 4107 4114 4137 4165 4180 4165 4151 4139 4131 4139 4149 4160 4171 4159 4146 4138 4128 4144 4146 4160 4172 4184 4181 4168 4150 4134 4125 4118 4119 4118 4110 4113 4124 4135 4155 4164 4166 4181 4179 4168 4169 4181 4183 4194 4210 4218 4227 4240 4247 4245 4256 4266 4270 4267 4266 4266 4264 4264 4264 4253 4249 4240 4231 4220 4214 4206 4192 4168 4158 4151 4163 4172 4179 4160 4153 4157 4150 4139 4127 4116 4108 4107 4102 4119 4126 4126 4145 4158 4141 4120 4130 4145 4171 4176 4176 4172 4169 4167 4163 4159 4164 4166 4167 4169 4168 4164 4159 4158 4164 4167 4173 4175 4179 4176 4167 4167 4140 4150 4126 4102 4068 4058 4075 4113 4081 4051 4073 4126 4141 4136 4132 4159 4172 4165 4154 4148 4141 4124 4112 4103 4094 4098 4083 4084 4081 4097 4128 4106 4063 4057 4081 4105 4121 4102 4125 4113 4104 4083 4052 4047 4062 4053 4038 4013 3982 3936 3932 3962 4002 4029 4041 4061 4048
3284 3388 3477 3525 3504 3465 3414 3440 3437 3444 3482 3593 3694 3769 3818 3875 3905 3919 3955 3966 3972 3983 3990 3997 4010 4021 4048 4062 4081 4085 4084 4089 4102 4117 4126 4139 4154 4150 4152 4158 4159 4148 4153 4171 4183 4198 4217 4223 4206 4182 4174 4187 4194 4199 4204 4216 4224 4236 4253 4260 4243 4233 4223 4223 4211 4198 4187 4172 4158 4154 4130 4107 4113 4118 4135 4134 4120 4108 4082 4071 4062 4036 4027 4024 4019 4019 4031 4059 4095 4144 4189 4230 4283 4260 4216 4142 4116 4099 4091 4080 4076 4087 4076 4099 4104 4091 4085 4082 4082 4109 4121 4132 4124 4128 4140 4156 4172 4186 4207 4220 4229 4248 4268 4278 4290 4294 4288 4300 4319 4343 4364 4380 4387 4395 4407 4434 4468 4516 4539 4555 4543 4554 4573 4599 4618 4645 4650 4633 4653 4669 4693 4721 4751 4778 4796 4820 4838 4850 4872 4876 4863 4840 4797 4763 4769 4809 4837 4852 4895 4850 4794 4740 4648 4599 4538 4479 4418 4379 4356 4329 4300 4255 4231 4202 4201 4213 4244 4260 4271 4265 4268 4281 4292 4276 4247 4213 4182 4129 4092 4069 4039 4012 3985 3999 4006 3997 3977 3941 3870 3828 3799 3782 3817 3762 3736 3699 3642 3610 3562 3519 3506 3517 3531 3496 3449 3426 3436 3433 3424 3390 3356 3334 3339 3386 3513 3567 3646 3663 3702 3757 3802 3811 3903 3936 3977 4051 4077 4070 4054 4029 4032 4031 4020 4044 4064 4076 4051 4030 4009 3976 3957 3930 3916 3911 3916 3921 3937 3921 3917 3930 3952 3977 3949 3965 3989 4008 4028 4027 4029 4044 4038 4039 4047 4058 4055 4027 4009 3955 3939 3897 3857 3816 3780 3729 3673 3588 3541 3526 3500 3487 3471 3437 3414 3390 3385 3387 3391 3392 3392 3390 3379 3433 3398 3412 3391 3390 3396 3431 3454 3482 3416 3397 3357 3358 3410 3458 3496 3516 3538 3557 3580 3640 3653 3689 3688 3683 3729 3767 3808 3836 3857 3894 3929 3949 3961 3953 3935 3919 3922 3925 3920 3920 3915 3884 3798 3770 3763 3760 3785 3838 3873 3868 3892 3893 3901 3875 3752 3670 3622 3552 3514 3491 3447 3417 3421 3481 3584 3681 3768 3840 3892 3943 3972 3999 4031 4031 4026 4019 3998 3954 3939 3932 3949 3948 3955 3941 3924 3935 3958 3979 4014 4045 4076 4051 4004 3965 3954 3964 3974 3958 3935 3933 3953 3992 4039 4078 4094 4070 4044 4021 4020 4054 4091 4106 4117 4129 4154 4168 4174 4163 4143 4134 4128 4138 4149 4152 4170 4164 4154 4136 4126 4139 4149 4161 4168 4160 4171 4151 4137 4121 4118 4120 4112 4112 4112 4111 4122 4128 4144 4151 4168 4196 4200 4189 4188 4198 4211 4213 4215 4231 4231 4229 4242 4250 4266 4274 4265 4266 4265 4261 4257 4256 4252 4248 4245 4237 4228 4220 4200 4194 4186 4174 4163 4151 4150 4165 4170 4158 4142 4137 4133 4132 4123 4112 4110 4105 4100 4109 4109 4120 4133 4145 4128 4110 4122 4133 4151 4163 4163 4168 4166 4161 4164 4158 4159 4163 4167 4168 4164 4158 4158 4162 4160 4163 4162 4168 4167 4169 4148 4131 4110 4122 4144 4103 4065 4045 4063 4099 4075 4052 4087 4121 4112 4103 4135 4161 4150 4141 4134 4116 4102 4087 4077 4078 4082 4094 4083 4076 4081 4109 4130 4100 4068 4041 4055 4089 4086 4084 4107 4128 4113 4080 4063 4042 4028 4023 4006 3990 3971 3944 3930 3965 3989 4015 4032 4057 4065
3354 3463 3569 3589 3592 3555 3490 3477 3482 3500 3562 3641 3727 3798 3850 3899 3927 3961 3976 3975 3981 3999 4005 4008 4026 4051 4065 4078 4094 4084 4074 4077 4082 4099 4110 4115 4118 4124 4130 4129 4132 4136 4149 4164 4177 4182 4199 4200 4179 4149 4166 4181 4187 4187 4193 4207 4204 4221 4238 4257 4256 4248 4250 4240 4227 4219 4204 4182 4179 4160 4143 4151 4153 4140 4142 4149 4144 4129 4119 4105 4079 4050 4040 4046 4039 4062 4086 4117 4151 4180 4217 4250 4292 4287 4225 4160 4132 4127 4118 4110 4104 4106 4090 4108 4108 4091 4096 4096 4106 4134 4163 4157 4144 4145 4146 4163 4184 4185 4197 4215 4238 4250 4268 4282 4302 4313 4308 4310 4320 4350 4375 4385 4385 4396 4412 4447 4482 4511 4531 4544 4546 4556 4561 4581 4609 4624 4619 4624 4652 4681 4703 4729 4741 4764 4775 4793 4808 4824 4841 4848 4835 4801 4774 4739 4758 4799 4842 4873 4908 4928 4938 4857 4784 4710 4632 4601 4551 4518 4473 4439 4402 4364 4330 4307 4285 4302 4309 4327 4348 4349 4336 4338 4331 4309 4280 4253 4215 4174 4129 4095 4076 4056 4043 4049 4058 4059 4042 3993 3938 3888 3848 3835 3829 3792 3712 3679 3640 3599 3543 3512 3519 3527 3547 3540 3511 3479 3466 3468 3467 3444 3417 3377 3363 3361 3398 3463 3600 3641 3713 3753 3797 3850 3916 3950 4006 4050 4094 4119 4128 4117 4087 4084 4122 4134 4155 4133 4087 4071 4039 4026 3997 3967 3971 3968 3976 3980 3999 3996 3985 3985 4010 4042 4060 4077 4060 4054 4081 4103 4093 4094 4079 4074 4078 4083 4093 4075 4041 4005 3963 3920 3879 3877 3838 3799 3748 3692 3645 3611 3597 3597 3582 3539 3498 3471 3462 3485 3497 3482 3476 3462 3455 3469 3500 3510 3507 3501 3514 3562 3559 3529 3486 3420 3385 3366 3381 3405 3445 3473 3502 3525 3538 3540 3564 3621 3662 3715 3735 3774 3803 3844 3882 3900 3914 3943 3958 3941 3937 3932 3912 3895 3885 3885 3886 3848 3781 3738 3727 3725 3722 3746 3771 3813 3843 3852 3809 3744 3691 3640 3535 3518 3476 3450 3413 3422 3468 3556 3657 3753 3837 3904 3947 3997 4025 4026 4043 4037 4031 4035 4015 3980 3969 3949 3969 3974 3987 3973 3966 3992 3997 3998 4014 4065 4071 4037 3987 3958 3970 3991 4015 4008 3974 3964 3944 3964 4006 4049 4091 4113 4089 4061 4060 4084 4121 4124 4133 4148 4152 4168 4172 4163 4145 4132 4123 4136 4147 4163 4158 4146 4139 4131 4121 4136 4149 4151 4159 4141 4156 4142 4131 4130 4116 4115 4116 4112 4114 4115 4120 4126 4133 4149 4174 4198 4208 4208 4211 4216 4215 4204 4207 4217 4212 4215 4231 4249 4262 4268 4268 4268 4263 4258 4261 4258 4246 4244 4243 4237 4233 4223 4208 4185 4178 4173 4156 4149 4144 4161 4165 4149 4146 4142 4136 4124 4121 4116 4117 4108 4105 4100 4107 4114 4127 4143 4137 4121 4109 4125 4134 4134 4140 4167 4166 4164 4161 4159 4156 4159 4162 4160 4159 4156 4152 4153 4161 4162 4159 4168 4172 4165 4135 4100 4074 4080 4123 4106 4059 4039 4051 4081 4058 4044 4075 4083 4074 4113 4143 4154 4123 4109 4114 4096 4083 4066 4042 4035 4043 4060 4070 4075 4098 4124 4129 4123 4085 4048 4033 4058 4052 4057 4082 4117 4123 4097 4063 4039 4025 4025 4013 4000 3957 3936 3927 3936 3967 4000 4029 4049 4078
3433 3530 3613 3620 3616 3610 3574 3537 3509 3564 3651 3721 3777 3827 3872 3909 3928 3972 3978 3984 3994 4007 4008 4017 4040 4068 4080 4085 4067 4050 4047 4057 4070 4081 4090 4091 4097 4091 4095 4106 4112 4119 4131 4139 4155 4158 4161 4161 4149 4146 4166 4168 4167 4164 4181 4179 4194 4209 4228 4247 4255 4259 4257 4258 4253 4236 4224 4204 4188 4177 4168 4172 4167 4157 4154 4142 4151 4148 4131 4115 4090 4074 4052 4056 4060 4088 4143 4174 4199 4225 4244 4288 4331 4330 4283 4205 4163 4150 4135 4129 4130 4124 4109 4110 4116 4112 4116 4116 4123 4135 4168 4167 4158 4155 4172 4179 4188 4206 4219 4232 4239 4249 4267 4280 4300 4323 4333 4335 4343 4352 4360 4378 4381 4392 4414 4436 4462 4495 4523 4520 4522 4537 4556 4573 4600 4597 4600 4632 4659 4687 4707 4726 4724 4728 4737 4762 4774 4785 4804 4810 4800 4765 4734 4718 4748 4789 4827 4858 4901 4935 4974 4960 4923 4857 4775 4721 4670 4635 4590 4542 4495 4454 4427 4415 4415 4407 4410 4407 4406 4416 4404 4383 4370 4342 4309 4277 4249 4212 4165 4136 4118 4108 4106 4113 4116 4111 4090 4035 3981 3922 3892 3872 3810 3753 3689 3645 3600 3553 3520 3502 3518 3542 3563 3592 3570 3536 3520 3509 3496 3481 3449 3418 3399 3373 3374 3433 3542 3610 3667 3718 3774 3810 3862 3926 3984 4039 4095 4161 4181 4163 4197 4207 4206 4215 4198 4160 4128 4118 4102 4068 4044 4020 4019 4031 4039 4046 4066 4065 4049 4054 4066 4080 4114 4132 4136 4132 4146 4146 4134 4121 4108 4106 4103 4102 4089 4079 4068 4038 3989 3959 3903 3910 3878 3859 3818 3760 3715 3685 3676 3676 3663 3631 3597 3582 3584 3593 3594 3592 3588 3569 3501 3498 3521 3562 3604 3623 3634 3640 3616 3582 3528 3481 3440 3386 3375 3378 3394 3412 3436 3473 3510 3516 3527 3558 3636 3698 3715 3758 3795 3852 3877 3927 3940 3949 3965 3959 3951 3947 3934 3901 3892 3880 3866 3838 3765 3732 3708 3691 3675 3690 3711 3760 3788 3790 3751 3686 3640 3587 3538 3503 3460 3416 3420 3468 3543 3631 3726 3813 3884 3937 3994 4035 4048 4032 4041 4046 4047 4047 4025 3997 3991 3967 3973 4003 4011 4015 4032 4037 4054 4038 4030 4081 4077 4052 3977 3991 3989 3976 4005 4026 4002 4014 3978 3955 3978 4005 4045 4094 4121 4119 4101 4118 4136 4152 4152 4151 4141 4152 4160 4149 4134 4128 4121 4132 4139 4155 4161 4143 4137 4125 4126 4141 4132 4131 4140 4132 4150 4156 4144 4134 4123 4117 4112 4111 4107 4111 4114 4125 4144 4163 4148 4160 4180 4199 4198 4199 4202 4196 4192 4193 4203 4222 4229 4238 4250 4255 4259 4258 4260 4256 4257 4250 4243 4239 4238 4231 4226 4226 4219 4208 4196 4175 4162 4146 4138 4150 4170 4170 4162 4155 4151 4145 4135 4126 4115 4107 4100 4100 4109 4119 4136 4137 4122 4115 4102 4111 4112 4115 4128 4150 4165 4164 4164 4162 4160 4153 4153 4153 4157 4154 4155 4156 4155 4157 4164 4172 4170 4168 4148 4093 4058 4058 4085 4102 4061 4032 4036 4058 4054 4035 4056 4053 4073 4104 4149 4150 4124 4088 4086 4071 4060 4041 4026 4000 4008 4029 4056 4082 4114 4113 4099 4106 4093 4062 4029 4037 4041 4062 4096 4104 4099 4094 4063 4033 4031 4020 4006 4007 3995 3972 3924 3935 3951 3987 4021 4031 4045
3504 3587 3638 3651 3650 3648 3618 3602 3579 3624 3708 3760 3811 3854 3886 3915 3943 3959 3973 3985 4003 4018 4032 4048 4088 4094 4078 4052 4049 4043 4052 4065 4066 4055 4049 4049 4057 4062 4065 4073 4083 4083 4095 4114 4128 4131 4137 4131 4115 4128 4148 4147 4141 4152 4158 4164 4177 4194 4205 4222 4241 4267 4277 4285 4274 4258 4233 4229 4218 4198 4179 4176 4188 4184 4171 4160 4165 4166 4146 4127 4104 4092 4078 4072 4082 4119 4167 4203 4229 4259 4292 4329 4361 4341 4279 4213 4180 4161 4145 4148 4152 4148 4132 4129 4130 4128 4131 4124 4137 4155 4172 4185 4174 4180 4194 4210 4219 4215 4233 4249 4256 4263 4285 4299 4308 4321 4330 4349 4356 4363 4374 4379 4381 4390 4399 4416 4437 4473 4486 4487 4518 4541 4553 4563 4580 4575 4599 4628 4656 4673 4700 4704 4690 4687 4708 4726 4733 4751 4771 4777 4762 4736 4698 4710 4740 4774 4807 4851 4887 4930 4962 4979 4990 4952 4886 4838 4803 4764 4707 4640 4584 4544 4527 4527 4532 4536 4530 4512 4499 4494 4484 4463 4412 4376 4327 4295 4262 4230 4205 4187 4173 4168 4156 4150 4128 4110 4059 4030 3988 3925 3873 3809 3768 3716 3663 3628 3587 3541 3495 3464 3511 3548 3588 3636 3632 3592 3587 3555 3532 3515 3483 3449 3429 3426 3396 3391 3461 3601 3633 3685 3745 3786 3831 3892 3950 3996 4067 4119 4191 4220 4242 4265 4277 4254 4234 4205 4185 4180 4178 4141 4096 4066 4074 4118 4110 4120 4133 4137 4119 4076 4124 4141 4184 4203 4193 4214 4216 4205 4200 4168 4147 4135 4135 4128 4138 4127 4113 4078 4041 4002 3971 3950 3923 3873 3862 3827 3776 3744 3726 3716 3707 3690 3671 3658 3666 3649 3656 3658 3613 3548 3526 3527 3568 3586 3631 3668 3693 3676 3657 3622 3579 3535 3491 3451 3411 3391 3388 3381 3385 3403 3443 3481 3494 3536 3605 3679 3771 3788 3803 3852 3903 3929 3957 3958 3978 3959 3968 3963 3945 3946 3931 3906 3878 3844 3799 3756 3707 3667 3643 3616 3663 3695 3735 3744 3688 3636 3575 3529 3506 3466 3421 3405 3450 3528 3612 3699 3787 3865 3926 3985 4027 4060 4060 4047 4046 4054 4056 4055 4048 4025 4012 3999 3983 3992 4009 4021 4027 4048 4062 4075 4070 4089 4091 4050 4001 3997 4009 4011 3998 4019 4042 4040 4019 3991 3970 3988 4016 4079 4095 4141 4129 4129 4159 4158 4152 4136 4131 4139 4155 4136 4135 4123 4121 4129 4138 4154 4163 4149 4133 4116 4116 4130 4149 4129 4126 4123 4135 4146 4158 4149 4139 4122 4112 4111 4106 4108 4111 4124 4133 4139 4135 4152 4181 4184 4184 4196 4185 4179 4194 4199 4202 4216 4226 4231 4235 4239 4241 4249 4257 4265 4259 4250 4249 4239 4234 4226 4227 4222 4230 4232 4212 4184 4164 4153 4140 4145 4170 4177 4155 4142 4131 4122 4118 4118 4115 4104 4099 4094 4104 4120 4132 4132 4112 4102 4101 4106 4106 4119 4124 4139 4156 4161 4164 4163 4163 4160 4154 4153 4149 4150 4155 4152 4153 4156 4161 4161 4164 4161 4144 4097 4076 4048 4042 4071 4072 4040 4020 4029 4027 4029 4047 4063 4093 4130 4149 4133 4110 4076 4064 4056 4029 4014 4004 3991 3977 4002 4045 4076 4103 4077 4067 4072 4085 4052 4030 4016 4046 4082 4096 4065 4051 4059 4057 4034 4028 4026 4010 3985 3980 3954 3925 3938 3975 3995 4007 4019 4028
3555 3616 3661 3682 3685 3691 3689 3667 3615 3708 3752 3800 3846 3878 3900 3927 3946 3964 3987 4015 4031 4042 4058 4080 4084 4060 4039 4039 4042 4041 4035 4034 4023 4015 4011 4031 4032 4035 4046 4042 4058 4069 4079 4098 4106 4109 4116 4097 4100 4126 4132 4126 4123 4137 4153 4152 4160 4176 4196 4215 4237 4262 4278 4291 4291 4279 4253 4237 4228 4209 4211 4206 4204 4207 4199 4184 4186 4186 4168 4140 4107 4093 4092 4097 4099 4126 4178 4216 4241 4277 4306 4345 4376 4343 4276 4230 4185 4162 4155 4159 4167 4162 4147 4139 4138 4139 4153 4147 4157 4173 4192 4191 4200 4206 4217 4222 4227 4244 4245 4261 4283 4290 4296 4307 4320 4333 4340 4350 4358 4374 4385 4381 4377 4382 4395 4409 4422 4433 4449 4470 4491 4508 4518 4538 4554 4572 4596 4614 4641 4656 4676 4678 4656 4653 4678 4688 4685 4702 4733 4734 4724 4702 4685 4717 4750 4781 4812 4851 4888 4920 4950 4975 4992 5006 4976 4941 4912 4875 4804 4727 4669 4634 4625 4633 4645 4649 4653 4625 4609 4594 4572 4550 4491 4415 4371 4327 4292 4269 4253 4242 4226 4209 4173 4141 4100 4067 4029 3998 3956 3894 3830 3797 3772 3745 3707 3626 3578 3518 3487 3530 3559 3611 3642 3690 3707 3667 3622 3592 3558 3534 3514 3476 3468 3444 3440 3427 3422 3493 3607 3639 3721 3769 3807 3853 3894 3952 4013 4076 4149 4211 4254 4288 4305 4293 4289 4290 4256 4227 4205 4166 4131 4131 4144 4186 4200 4194 4207 4203 4202 4205 4192 4205 4242 4256 4250 4270 4288 4277 4248 4209 4185 4169 4176 4173 4185 4156 4137 4124 4087 4043 4002 3963 3925 3906 3906 3865 3832 3791 3760 3738 3733 3726 3712 3706 3714 3694 3675 3641 3595 3564 3581 3592 3612 3636 3671 3697 3726 3721 3696 3662 3620 3573 3546 3506 3475 3445 3440 3434 3397 3377 3397 3435 3467 3543 3598 3681 3736 3793 3824 3878 3907 3942 3967 3980 3994 3991 3987 3975 3965 3951 3929 3924 3871 3834 3807 3767 3712 3663 3637 3625 3627 3646 3685 3694 3661 3608 3535 3501 3471 3433 3402 3429 3497 3587 3676 3762 3844 3926 3994 4038 4052 4064 4062 4060 4059 4067 4068 4065 4057 4037 4025 4021 4012 4007 3998 4005 4011 4017 4023 4030 4050 4077 4088 4054 4001 4000 4022 4039 4026 4043 4074 4064 4036 4021 4015 4013 4034 4081 4114 4143 4147 4151 4154 4150 4157 4139 4133 4128 4138 4124 4125 4121 4120 4130 4134 4150 4157 4135 4126 4116 4115 4120 4152 4141 4132 4113 4118 4128 4147 4162 4142 4122 4109 4108 4099 4103 4104 4120 4126 4122 4142 4156 4162 4170 4168 4176 4175 4182 4184 4193 4210 4215 4225 4227 4222 4235 4241 4249 4259 4257 4253 4255 4252 4244 4231 4231 4228 4229 4230 4232 4217 4185 4164 4154 4141 4138 4155 4172 4177 4166 4152 4133 4125 4110 4114 4106 4102 4092 4101 4117 4120 4119 4108 4096 4103 4115 4117 4141 4149 4152 4162 4171 4168 4162 4159 4158 4159 4153 4149 4150 4146 4148 4150 4152 4155 4157 4163 4160 4156 4142 4114 4070 4037 4045 4068 4056 4021 4011 4036 4056 4072 4091 4113 4140 4142 4105 4076 4058 4043 4030 4013 4002 3981 3979 3974 4010 4044 4063 4085 4061 4039 4045 4056 4042 4023 4017 4054 4101 4103 4070 4034 4026 4031 4028 4014 4013 4010 4003 3992 3945 3919 3926 3964 4011 4036 4047 4060
3572 3628 3683 3716 3715 3725 3730 3711 3698 3743 3801 3843 3878 3893 3937 3953 3966 3989 4033 4071 4081 4087 4090 4085 4053 4046 4038 4036 4019 4017 4013 3998 3994 3992 3999 4010 4015 4023 4029 4020 4036 4050 4055 4074 4079 4099 4095 4077 4088 4104 4108 4100 4106 4127 4136 4139 4150 4166 4179 4200 4225 4237 4250 4263 4283 4289 4275 4248 4235 4224 4227 4233 4217 4216 4222 4197 4196 4194 4192 4166 4142 4123 4112 4108 4120 4147 4191 4227 4248 4285 4318 4351 4385 4364 4307 4230 4193 4171 4165 4169 4176 4176 4157 4155 4157 4167 4159 4169 4179 4186 4223 4234 4210 4219 4232 4233 4241 4258 4253 4275 4296 4309 4307 4312 4328 4338 4353 4365 4370 4390 4387 4367 4371 4373 4381 4397 4425 4450 4472 4498 4506 4514 4539 4553 4569 4586 4590 4602 4625 4642 4657 4650 4631 4620 4627 4627 4627 4655 4684 4687 4689 4672 4677 4719 4749 4788 4821 4854 4883 4910 4937 4959 4981 5001 5002 4995 4977 4945 4878 4797 4746 4717 4713 4726 4742 4772 4759 4740 4714 4679 4647 4600 4535 4475 4408 4363 4330 4316 4306 4298 4275 4224 4178 4129 4091 4053 4029 3990 3964 3889 3860 3829 3795 3747 3685 3621 3581 3549 3543 3576 3608 3650 3702 3744 3747 3695 3657 3629 3594 3557 3525 3502 3490 3483 3469 3462 3449 3426 3533 3614 3666 3713 3736 3799 3834 3899 3960 4030 4092 4194 4277 4319 4323 4373 4356 4321 4277 4255 4241 4219 4179 4181 4217 4241 4247 4277 4290 4286 4279 4260 4236 4260 4299 4312 4337 4338 4338 4329 4312 4258 4219 4221 4222 4214 4214 4203 4171 4147 4111 4074 4054 4013 3991 3942 3905 3868 3860 3814 3765 3757 3757 3771 3757 3742 3747 3725 3682 3656 3615 3603 3620 3636 3646 3667 3684 3706 3741 3741 3709 3690 3685 3639 3595 3559 3526 3515 3512 3458 3394 3374 3378 3418 3467 3516 3606 3676 3730 3776 3837 3869 3895 3915 3926 3969 3976 3983 3985 3952 3933 3913 3894 3880 3850 3821 3800 3760 3705 3663 3623 3601 3583 3615 3646 3649 3620 3558 3512 3469 3424 3410 3418 3466 3554 3650 3741 3828 3903 3989 4038 4051 4065 4069 4062 4072 4074 4081 4080 4073 4056 4039 4023 4031 4030 4024 4023 4015 4022 4047 4041 4024 4029 4043 4074 4064 4022 4016 4032 4057 4068 4075 4101 4106 4083 4063 4056 4054 4048 4103 4132 4159 4162 4158 4152 4139 4153 4140 4128 4124 4124 4122 4120 4117 4118 4129 4135 4154 4155 4144 4131 4114 4112 4115 4137 4156 4128 4124 4115 4114 4133 4152 4145 4123 4108 4110 4107 4102 4107 4121 4124 4115 4130 4147 4155 4153 4161 4171 4180 4190 4193 4197 4205 4215 4220 4222 4228 4237 4257 4258 4259 4262 4262 4252 4242 4240 4239 4228 4224 4222 4228 4232 4211 4180 4153 4145 4130 4146 4165 4164 4176 4159 4144 4136 4126 4117 4107 4107 4106 4098 4096 4116 4114 4104 4090 4097 4103 4119 4146 4150 4155 4176 4176 4166 4162 4157 4156 4157 4157 4152 4149 4147 4148 4148 4149 4151 4155 4166 4169 4169 4149 4126 4092 4059 4043 4024 4035 4061 4033 4015 4056 4086 4088 4099 4118 4136 4154 4136 4117 4077 4069 4054 4025 3984 3979 3961 3962 4001 4030 4058 4084 4074 4044 4027 4026 4031 3999 4010 4047 4091 4106 4074 4035 4017 4001 4002 4006 3995 4000 3994 3994 3969 3924 3923 3951 4002 4023 4039 4048
3574 3606 3656 3711 3741 3744 3728 3703 3699 3797 3855 3894 3929 3953 3976 3984 3994 4042 4063 4059 4060 4052 4051 4058 4037 4026 4014 4013 4001 3997 3982 3972 3979 3981 3981 3988 4001 4001 4011 4000 4015 4033 4042 4058 4063 4075 4068 4058 4072 4081 4078 4078 4102 4108 4115 4131 4138 4152 4167 4180 4198 4214 4226 4241 4256 4267 4271 4272 4267 4251 4237 4233 4223 4214 4224 4203 4204 4205 4207 4195 4184 4170 4152 4137 4138 4168 4208 4248 4278 4291 4319 4349 4391 4386 4308 4242 4201 4183 4171 4176 4195 4187 4171 4173 4180 4200 4191 4196 4204 4216 4241 4240 4224 4237 4246 4250 4267 4278 4285 4277 4299 4319 4322 4324 4331 4338 4348 4371 4393 4385 4379 4362 4365 4368 4372 4389 4413 4441 4474 4499 4515 4525 4537 4555 4564 4568 4579 4595 4605 4627 4628 4616 4610 4587 4585 4593 4610 4623 4639 4648 4653 4658 4693 4724 4758 4786 4814 4845 4862 4887 4908 4929 4956 4967 4979 4997 4987 4953 4901 4848 4807 4784 4783 4797 4814 4841 4853 4844 4806 4748 4705 4637 4588 4521 4468 4407 4389 4373 4355 4330 4291 4239 4187 4143 4101 4061 4039 4003 3961 3924 3881 3840 3806 3763 3698 3631 3589 3568 3559 3592 3630 3690 3735 3782 3761 3722 3674 3648 3618 3588 3550 3528 3519 3508 3493 3482 3464 3447 3491 3561 3627 3659 3675 3746 3807 3851 3942 4006 4064 4094 4241 4296 4366 4424 4421 4437 4389 4355 4311 4256 4238 4233 4265 4282 4298 4323 4351 4358 4330 4315 4312 4330 4372 4393 4412 4436 4440 4414 4345 4314 4279 4275 4271 4263 4262 4232 4213 4176 4150 4126 4074 4042 3989 3932 3895 3903 3883 3844 3796 3793 3802 3823 3784 3771 3766 3750 3718 3691 3658 3653 3672 3672 3666 3691 3715 3729 3765 3766 3751 3739 3728 3689 3643 3601 3567 3540 3507 3451 3388 3364 3379 3417 3440 3502 3584 3645 3700 3759 3816 3848 3848 3857 3876 3891 3910 3930 3907 3871 3844 3832 3827 3814 3773 3761 3751 3720 3682 3642 3602 3546 3569 3589 3607 3628 3595 3541 3478 3425 3399 3420 3459 3535 3626 3722 3807 3892 3957 4026 4055 4058 4073 4078 4073 4088 4090 4092 4095 4083 4057 4046 4047 4049 4052 4043 4034 4026 4018 4036 4066 4051 4040 4054 4066 4093 4056 4052 4074 4092 4110 4126 4132 4141 4123 4104 4099 4100 4088 4091 4133 4168 4156 4143 4140 4130 4133 4129 4121 4120 4113 4115 4111 4112 4120 4129 4136 4161 4175 4155 4131 4118 4111 4108 4119 4139 4149 4132 4117 4107 4110 4128 4142 4124 4108 4102 4107 4108 4109 4121 4129 4118 4129 4143 4144 4157 4169 4178 4190 4198 4204 4215 4218 4221 4219 4222 4227 4235 4238 4242 4249 4248 4257 4252 4250 4236 4231 4225 4221 4218 4221 4223 4205 4170 4150 4141 4128 4136 4147 4146 4140 4152 4125 4122 4119 4124 4107 4102 4100 4094 4091 4100 4103 4100 4098 4103 4117 4127 4132 4133 4149 4171 4167 4163 4160 4156 4153 4149 4157 4153 4147 4145 4141 4146 4146 4152 4155 4158 4169 4176 4168 4140 4094 4074 4053 4035 4016 4031 4022 4004 4045 4058 4052 4070 4107 4124 4143 4147 4143 4116 4092 4044 4028 4032 4033 4000 3952 3977 4021 4060 4095 4095 4076 4044 4019 3996 4003 4027 4044 4088 4108 4083 4060 4040 4018 4002 3980 3985 3975 3975 3973 3963 3925 3920 3935 3975 3998 4014 4029
3548 3627 3688 3715 3769 3738 3734 3713 3762 3865 3909 3946 3966 3983 3998 4041 4052 4067 4049 4029 4018 4012 4019 4022 4022 3998 3986 3985 3978 3964 3959 3957 3971 3971 3969 3974 3984 3981 3988 3981 4001 4022 4029 4040 4043 4052 4040 4038 4056 4059 4051 4070 4091 4096 4102 4113 4130 4139 4144 4159 4178 4192 4202 4216 4221 4232 4245 4273 4288 4273 4253 4240 4232 4222 4225 4217 4218 4218 4219 4207 4194 4196 4182 4157 4155 4183 4234 4287 4311 4310 4326 4351 4378 4394 4363 4289 4219 4202 4194 4201 4212 4198 4189 4193 4201 4224 4215 4209 4225 4240 4251 4250 4244 4261 4270 4276 4277 4284 4297 4286 4296 4311 4320 4333 4342 4345 4355 4374 4390 4384 4370 4357 4360 4361 4373 4385 4402 4429 4458 4487 4495 4503 4524 4540 4549 4569 4578 4588 4600 4618 4615 4585 4566 4562 4595 4629 4645 4655 4652 4672 4685 4691 4706 4739 4755 4777 4796 4814 4840 4852 4867 4885 4901 4916 4939 4956 4973 4961 4925 4883 4851 4833 4830 4838 4848 4843 4827 4816 4797 4757 4683 4641 4622 4561 4490 4451 4432 4419 4403 4367 4308 4272 4196 4151 4110 4071 4038 4002 3974 3950 3911 3870 3830 3784 3720 3648 3604 3584 3578 3608 3657 3707 3775 3808 3803 3767 3732 3700 3658 3619 3603 3581 3561 3549 3526 3505 3475 3458 3483 3531 3604 3682 3712 3753 3808 3861 3924 3982 4062 4114 4205 4269 4308 4377 4429 4457 4433 4381 4334 4309 4296 4284 4301 4328 4345 4389 4420 4413 4390 4373 4362 4416 4437 4459 4478 4494 4489 4465 4413 4352 4350 4316 4301 4287 4273 4245 4216 4190 4157 4113 4058 4002 3954 3929 3946 3914 3877 3836 3813 3818 3829 3854 3849 3804 3792 3780 3746 3713 3698 3702 3701 3710 3716 3724 3733 3753 3796 3786 3774 3754 3728 3697 3649 3609 3558 3525 3492 3439 3412 3368 3364 3395 3410 3476 3555 3615 3671 3741 3798 3807 3813 3805 3815 3822 3844 3864 3865 3806 3786 3757 3754 3736 3717 3703 3704 3681 3660 3608 3574 3523 3533 3558 3585 3597 3543 3483 3427 3389 3422 3468 3533 3612 3701 3784 3854 3931 3996 4052 4075 4065 4073 4087 4083 4088 4103 4108 4106 4082 4063 4054 4059 4066 4061 4062 4071 4067 4037 4032 4052 4077 4068 4077 4083 4109 4101 4094 4108 4135 4139 4138 4136 4127 4133 4131 4140 4139 4134 4113 4129 4149 4147 4154 4143 4131 4123 4124 4130 4119 4115 4112 4112 4112 4116 4125 4139 4157 4167 4156 4141 4114 4106 4104 4119 4135 4147 4147 4131 4108 4102 4109 4128 4116 4101 4099 4098 4106 4106 4114 4114 4119 4125 4134 4154 4170 4182 4195 4204 4201 4208 4218 4222 4224 4219 4217 4220 4230 4244 4242 4255 4258 4260 4250 4246 4234 4228 4225 4215 4212 4217 4226 4218 4195 4173 4153 4139 4124 4125 4125 4122 4121 4113 4112 4108 4103 4100 4096 4101 4101 4091 4091 4090 4094 4100 4107 4119 4115 4117 4130 4143 4161 4162 4155 4152 4150 4147 4145 4148 4150 4144 4145 4148 4146 4149 4151 4156 4160 4169 4168 4166 4138 4112 4081 4056 4038 4023 4015 4002 3998 4031 4029 4060 4064 4062 4090 4125 4144 4129 4121 4080 4072 4073 4059 4048 3983 3952 3981 4026 4055 4099 4103 4067 4041 4022 3992 4001 4046 4081 4098 4097 4075 4035 4009 4004 4009 3991 3980 3973 3961 3955 3927 3918 3928 3938 3970 3995 4027 4039
3535 3605 3666 3713 3766 3782 3752 3753 3830 3903 3952 3985 3998 4024 4041 4057 4063 4053 4036 4025 4013 4005 4005 4004 4006 3991 3977 3957 3952 3947 3944 3949 3965 3964 3956 3963 3963 3965 3980 3983 3988 3992 4009 4019 4025 4041 4030 4017 4036 4028 4048 4062 4081 4071 4084 4105 4118 4113 4122 4140 4147 4163 4173 4189 4198 4218 4225 4239 4264 4278 4276 4267 4265 4266 4249 4235 4235 4240 4234 4208 4201 4208 4203 4180 4172 4189 4238 4284 4313 4330 4356 4372 4382 4392 4382 4308 4254 4232 4230 4227 4232 4213 4216 4214 4225 4239 4236 4222 4233 4251 4260 4269 4269 4272 4279 4284 4290 4283 4298 4311 4314 4318 4328 4339 4350 4347 4363 4383 4382 4376 4358 4348 4351 4358 4371 4377 4391 4413 4436 4454 4474 4506 4532 4539 4544 4573 4586 4600 4605 4611 4581 4557 4556 4594 4617 4641 4657 4678 4682 4701 4706 4707 4716 4727 4732 4749 4757 4782 4780 4796 4815 4823 4851 4869 4880 4907 4935 4956 4937 4910 4883 4852 4844 4839 4827 4792 4783 4767 4753 4717 4678 4648 4603 4560 4517 4497 4491 4479 4445 4398 4345 4289 4231 4178 4121 4074 4044 4001 3977 3947 3912 3868 3832 3797 3740 3666 3615 3591 3591 3634 3701 3737 3797 3832 3851 3823 3789 3768 3736 3702 3651 3621 3598 3581 3565 3540 3520 3490 3489 3518 3579 3634 3688 3738 3795 3863 3911 3959 4022 4071 4157 4218 4296 4365 4412 4449 4467 4427 4405 4361 4393 4337 4357 4368 4411 4437 4487 4479 4472 4424 4431 4481 4511 4534 4542 4541 4503 4477 4443 4421 4410 4383 4344 4324 4289 4267 4228 4180 4152 4100 4031 4003 4003 4002 3978 3919 3894 3850 3855 3854 3863 3888 3887 3864 3849 3801 3768 3746 3740 3734 3743 3743 3743 3751 3760 3785 3825 3774 3750 3740 3723 3697 3639 3613 3546 3523 3487 3446 3403 3370 3339 3380 3400 3460 3521 3584 3641 3713 3763 3792 3792 3777 3762 3776 3794 3805 3797 3774 3745 3715 3688 3681 3678 3666 3644 3643 3616 3562 3517 3487 3504 3518 3544 3535 3495 3429 3382 3414 3471 3541 3609 3684 3756 3820 3888 3956 4012 4071 4084 4076 4084 4100 4098 4104 4117 4121 4101 4084 4069 4064 4064 4070 4075 4062 4077 4097 4082 4051 4063 4090 4097 4111 4115 4125 4132 4132 4140 4138 4127 4125 4121 4114 4114 4123 4133 4144 4159 4143 4146 4147 4137 4130 4144 4145 4140 4133 4130 4125 4118 4108 4106 4110 4111 4117 4133 4148 4156 4151 4129 4109 4101 4098 4113 4127 4133 4149 4133 4120 4107 4103 4107 4104 4103 4104 4101 4105 4106 4109 4114 4120 4130 4136 4155 4169 4185 4199 4208 4207 4206 4216 4217 4217 4213 4214 4222 4228 4232 4247 4256 4259 4258 4259 4243 4238 4228 4220 4213 4212 4209 4224 4231 4210 4179 4151 4126 4118 4122 4115 4113 4110 4112 4111 4108 4104 4100 4106 4110 4110 4092 4089 4087 4094 4103 4102 4101 4122 4133 4146 4158 4164 4156 4156 4150 4148 4146 4140 4140 4142 4144 4144 4144 4146 4146 4152 4154 4159 4162 4160 4161 4137 4129 4119 4085 4077 4046 4031 4014 3996 4001 4023 4052 4038 4058 4091 4125 4130 4105 4095 4116 4112 4108 4052 4030 3975 3952 3988 4019 4047 4089 4072 4051 4028 4015 3978 3993 4034 4046 4054 4084 4065 4028 3989 3971 3970 3973 3969 3980 3961 3946 3913 3912 3934 3988 4009 4017 4024 4022
3507 3579 3653 3699 3775 3786 3763 3785 3860 3928 3967 3990 4015 4048 4047 4043 4030 4021 4016 4009 4007 3990 4001 3999 3992 3983 3967 3948 3926 3934 3936 3942 3937 3928 3929 3939 3950 3955 3957 3970 3967 3971 3991 3988 4008 4020 4008 3998 4011 4021 4038 4053 4060 4048 4068 4093 4092 4091 4099 4116 4136 4143 4157 4169 4174 4192 4197 4217 4239 4262 4282 4286 4285 4282 4270 4261 4261 4254 4246 4237 4235 4234 4225 4205 4202 4209 4245 4285 4307 4330 4360 4390 4405 4428 4406 4373 4296 4261 4257 4267 4246 4248 4239 4235 4241 4258 4261 4260 4280 4262 4269 4275 4275 4289 4285 4290 4294 4299 4313 4312 4323 4326 4343 4347 4358 4365 4375 4385 4373 4369 4363 4350 4368 4383 4383 4389 4397 4407 4430 4453 4479 4510 4528 4542 4560 4577 4588 4596 4596 4587 4550 4533 4569 4603 4634 4646 4666 4661 4679 4693 4711 4724 4702 4689 4685 4703 4717 4718 4735 4740 4747 4767 4794 4800 4829 4858 4887 4925 4940 4927 4889 4870 4852 4833 4815 4815 4809 4805 4790 4774 4737 4685 4645 4586 4583 4587 4562 4536 4486 4429 4375 4312 4246 4180 4128 4081 4032 3989 3953 3917 3884 3852 3809 3782 3744 3685 3628 3597 3605 3660 3697 3755 3809 3856 3875 3859 3846 3812 3773 3737 3718 3695 3680 3660 3645 3646 3597 3554 3514 3511 3552 3608 3666 3723 3786 3843 3896 3946 3993 4027 4106 4187 4272 4330 4383 4444 4498 4522 4512 4464 4450 4400 4416 4455 4488 4547 4554 4536 4530 4474 4501 4538 4578 4601 4585 4549 4547 4547 4522 4483 4445 4420 4385 4340 4315 4284 4223 4178 4138 4094 4061 4070 4067 4027 3980 3936 3893 3873 3887 3885 3884 3890 3914 3895 3861 3830 3797 3790 3764 3773 3772 3777 3780 3783 3798 3828 3796 3755 3729 3711 3706 3672 3640 3597 3558 3518 3476 3443 3401 3354 3325 3341 3379 3447 3496 3552 3626 3689 3773 3806 3781 3758 3736 3737 3743 3753 3762 3761 3741 3702 3666 3635 3621 3605 3604 3586 3567 3513 3474 3452 3461 3467 3469 3472 3426 3366 3412 3464 3536 3609 3680 3748 3840 3880 3926 3994 4042 4079 4097 4091 4087 4109 4107 4110 4128 4125 4116 4093 4080 4075 4072 4069 4077 4080 4069 4090 4091 4088 4099 4130 4140 4141 4135 4136 4144 4146 4128 4126 4119 4109 4109 4112 4114 4118 4136 4152 4170 4168 4162 4158 4139 4109 4113 4134 4138 4137 4137 4118 4116 4110 4107 4107 4106 4114 4123 4132 4144 4128 4117 4103 4105 4102 4111 4124 4147 4148 4132 4123 4107 4102 4098 4093 4098 4102 4099 4105 4107 4108 4110 4114 4123 4129 4144 4165 4183 4192 4201 4193 4193 4203 4205 4210 4211 4215 4215 4223 4233 4243 4249 4245 4255 4242 4250 4243 4231 4220 4216 4210 4206 4215 4226 4207 4179 4140 4125 4129 4125 4119 4122 4123 4117 4113 4109 4110 4111 4110 4102 4098 4094 4097 4087 4090 4096 4106 4118 4113 4119 4123 4133 4155 4155 4151 4148 4145 4148 4142 4142 4139 4143 4141 4142 4144 4149 4154 4154 4160 4164 4167 4154 4132 4106 4091 4075 4076 4075 4057 4030 3996 3997 4032 4034 4024 4044 4055 4092 4119 4078 4056 4074 4083 4075 4060 4023 3967 3955 4004 4022 4047 4065 4053 4021 3987 3972 3964 3985 4014 4029 4055 4071 4036 4018 4018 3996 3972 3943 3958 3981 3965 3935 3914 3917 3929 3953 3982 4004 4014 4025
3527 3588 3671 3700 3746 3783 3788 3827 3884 3924 3952 3973 3991 4022 4010 4003 3997 3992 3988 3981 3977 3985 3984 3985 3983 3971 3951 3933 3923 3922 3918 3920 3904 3898 3907 3918 3930 3936 3942 3948 3942 3956 3966 3971 3998 3993 3977 3981 3989 4001 4015 4036 4034 4038 4064 4062 4052 4070 4084 4096 4115 4129 4140 4148 4162 4174 4194 4211 4236 4253 4259 4271 4291 4299 4297 4289 4281 4282 4272 4268 4266 4260 4255 4240 4221 4227 4255 4286 4305 4332 4358 4375 4402 4422 4409 4387 4341 4301 4281 4271 4271 4282 4282 4262 4261 4276 4284 4280 4298 4293 4295 4287 4289 4295 4299 4304 4316 4327 4339 4348 4343 4348 4356 4352 4372 4380 4388 4374 4364 4355 4346 4354 4391 4413 4408 4409 4410 4408 4427 4450 4474 4503 4515 4524 4546 4559 4571 4576 4573 4548 4519 4538 4576 4602 4637 4642 4638 4629 4636 4661 4672 4664 4642 4617 4621 4639 4652 4666 4672 4683 4692 4710 4735 4759 4772 4804 4847 4878 4906 4914 4904 4894 4886 4869 4858 4856 4847 4834 4825 4796 4747 4717 4691 4648 4636 4636 4618 4585 4529 4466 4404 4335 4260 4183 4134 4099 4052 4004 3962 3919 3892 3865 3840 3795 3743 3703 3594 3597 3635 3674 3703 3766 3819 3869 3895 3886 3874 3844 3799 3775 3749 3750 3732 3719 3723 3728 3649 3591 3537 3511 3541 3606 3669 3728 3786 3837 3887 3937 3987 4043 4100 4177 4238 4291 4354 4426 4497 4558 4564 4557 4554 4482 4573 4577 4616 4623 4604 4589 4564 4533 4571 4616 4637 4606 4571 4586 4581 4568 4557 4526 4481 4451 4426 4362 4309 4261 4235 4194 4170 4146 4127 4093 4085 4023 3963 3923 3896 3912 3903 3911 3893 3910 3931 3927 3895 3864 3827 3824 3801 3808 3787 3800 3811 3819 3831 3805 3780 3725 3699 3687 3690 3656 3618 3587 3546 3513 3479 3446 3403 3369 3344 3327 3375 3414 3458 3501 3592 3678 3725 3765 3768 3735 3713 3703 3711 3717 3715 3723 3729 3695 3645 3606 3568 3545 3540 3525 3515 3467 3425 3417 3410 3413 3401 3398 3371 3385 3429 3499 3580 3667 3741 3806 3873 3928 3951 3984 4039 4070 4097 4100 4098 4114 4128 4131 4139 4136 4127 4105 4092 4086 4086 4076 4073 4084 4077 4065 4105 4120 4127 4135 4127 4127 4119 4119 4120 4131 4130 4113 4103 4103 4116 4129 4141 4150 4153 4159 4164 4157 4152 4135 4124 4095 4078 4105 4110 4115 4135 4133 4123 4112 4106 4103 4103 4105 4107 4121 4148 4122 4105 4097 4098 4101 4103 4116 4135 4142 4121 4108 4099 4098 4096 4090 4094 4096 4098 4101 4104 4110 4113 4116 4118 4125 4135 4150 4165 4177 4183 4187 4198 4204 4202 4211 4214 4218 4220 4225 4230 4232 4234 4237 4237 4236 4246 4245 4238 4225 4212 4209 4200 4202 4213 4198 4162 4141 4140 4135 4132 4125 4128 4123 4124 4118 4121 4119 4113 4109 4104 4096 4097 4096 4087 4085 4100 4111 4112 4099 4101 4111 4136 4156 4157 4150 4149 4148 4157 4149 4139 4140 4139 4142 4145 4147 4148 4149 4153 4163 4161 4164 4162 4136 4086 4074 4060 4039 4050 4058 4041 4000 3996 4016 4004 4039 4054 4065 4100 4105 4077 4051 4030 4039 4039 4038 4030 3962 3940 3974 4025 4040 4033 4023 3949 3939 3944 3987 4029 4042 4051 4081 4074 4054 4049 4037 4015 3981 3955 3935 3957 3951 3923 3911 3913 3961 3994 4007 4021 4017 4015
3531 3603 3665 3710 3757 3785 3811 3845 3893 3917 3931 3940 3951 3987 3985 3981 3975 3975 3971 3962 3966 3971 3967 3972 3982 3970 3935 3916 3909 3908 3897 3893 3885 3881 3895 3908 3913 3913 3917 3922 3924 3943 3943 3944 3955 3959 3946 3952 3968 3989 4002 4011 4018 4036 4039 4031 4044 4061 4078 4098 4101 4113 4127 4144 4154 4173 4192 4214 4229 4247 4252 4276 4315 4336 4325 4319 4307 4297 4297 4284 4278 4277 4268 4261 4245 4247 4265 4291 4313 4335 4355 4358 4373 4404 4418 4396 4379 4344 4314 4307 4296 4290 4291 4275 4275 4292 4323 4331 4335 4346 4296 4308 4315 4320 4329 4337 4345 4358 4366 4362 4357 4368 4385 4393 4391 4385 4375 4354 4341 4336 4334 4353 4398 4433 4444 4438 4434 4436 4442 4459 4472 4492 4503 4522 4535 4545 4558 4562 4542 4503 4524 4562 4597 4607 4612 4600 4584 4571 4578 4591 4601 4588 4577 4549 4562 4590 4598 4612 4614 4609 4624 4649 4679 4695 4721 4767 4808 4838 4867 4876 4876 4883 4885 4884 4875 4871 4866 4849 4835 4827 4807 4764 4740 4702 4707 4697 4681 4573 4564 4499 4440 4370 4287 4201 4147 4104 4058 4018 3992 3952 3911 3873 3830 3792 3761 3714 3664 3606 3641 3684 3735 3783 3841 3891 3925 3932 3902 3887 3871 3835 3818 3796 3779 3756 3762 3777 3707 3629 3566 3526 3546 3621 3683 3739 3796 3849 3902 3952 4003 4058 4115 4174 4232 4284 4341 4395 4453 4495 4557 4589 4610 4612 4638 4656 4686 4694 4672 4651 4613 4607 4636 4657 4623 4592 4595 4610 4624 4596 4567 4555 4523 4492 4462 4414 4341 4308 4267 4252 4223 4199 4170 4119 4079 4023 3961 3930 3941 3945 3942 3941 3940 3949 3962 3959 3931 3889 3868 3857 3832 3852 3829 3845 3850 3864 3849 3800 3745 3715 3682 3672 3661 3633 3596 3581 3545 3516 3481 3457 3437 3407 3373 3346 3357 3395 3419 3444 3575 3627 3681 3712 3748 3717 3686 3679 3682 3690 3680 3684 3705 3674 3649 3615 3564 3539 3488 3463 3438 3430 3387 3373 3371 3374 3379 3359 3376 3413 3468 3526 3622 3714 3790 3857 3918 3963 3974 3986 4031 4074 4095 4118 4118 4128 4141 4156 4157 4148 4135 4127 4111 4093 4096 4091 4090 4096 4093 4086 4098 4129 4120 4118 4111 4108 4104 4101 4103 4113 4112 4104 4097 4099 4110 4119 4132 4132 4156 4154 4129 4128 4144 4123 4096 4078 4065 4087 4093 4103 4129 4129 4119 4114 4109 4103 4105 4099 4104 4112 4130 4128 4105 4093 4099 4102 4110 4129 4138 4127 4115 4103 4097 4092 4085 4089 4099 4096 4096 4104 4108 4111 4118 4124 4126 4127 4139 4158 4166 4174 4169 4172 4188 4201 4187 4204 4216 4199 4210 4219 4218 4216 4220 4224 4234 4246 4250 4247 4233 4222 4210 4203 4199 4193 4198 4186 4174 4164 4159 4145 4135 4129 4148 4141 4127 4126 4123 4123 4112 4111 4104 4104 4101 4094 4088 4084 4087 4099 4090 4107 4119 4130 4136 4144 4155 4139 4136 4141 4155 4159 4146 4139 4140 4145 4149 4148 4144 4150 4151 4162 4170 4168 4171 4146 4115 4104 4081 4045 4018 4033 4037 4015 3983 3994 4016 4048 4084 4085 4100 4090 4065 4053 4025 4014 4013 4002 4010 3993 3938 3960 4003 4035 4006 3955 3931 3992 4015 4014 4043 4075 4097 4093 4103 4102 4090 4049 4011 3995 3980 3966 3912 3916 3907 3906 3919 3952 3972 3963 3983 3990 4005
3542 3603 3651 3697 3740 3765 3777 3809 3856 3900 3914 3921 3932 3955 3967 3964 3960 3951 3948 3949 3955 3954 3956 3972 3970 3950 3906 3886 3876 3880 3872 3866 3875 3871 3881 3890 3901 3898 3893 3888 3896 3919 3919 3919 3935 3915 3914 3930 3948 3968 3978 3989 4002 4005 3999 4011 4022 4038 4064 4088 4097 4118 4144 4168 4174 4183 4197 4217 4226 4233 4258 4291 4332 4353 4346 4348 4343 4332 4325 4309 4298 4297 4293 4277 4266 4267 4290 4308 4317 4348 4353 4369 4380 4400 4435 4449 4425 4394 4361 4334 4317 4309 4313 4317 4316 4313 4317 4346 4357 4358 4354 4335 4343 4340 4347 4360 4379 4391 4391 4408 4398 4388 4383 4371 4368 4358 4355 4349 4335 4325 4336 4362 4392 4432 4468 4475 4473 4468 4460 4455 4470 4488 4514 4525 4530 4542 4549 4548 4502 4498 4531 4575 4585 4580 4540 4514 4508 4507 4502 4507 4529 4526 4517 4533 4543 4537 4555 4563 4569 4579 4592 4608 4626 4644 4673 4724 4757 4801 4821 4835 4836 4841 4851 4858 4855 4848 4847 4835 4831 4828 4816 4790 4767 4747 4771 4786 4763 4608 4566 4488 4463 4413 4332 4247 4177 4135 4093 4054 4008 3968 3950 3917 3867 3814 3765 3725 3665 3631 3667 3713 3762 3813 3872 3921 3964 3992 3959 3930 3900 3875 3857 3838 3821 3812 3814 3796 3735 3667 3597 3553 3580 3653 3712 3765 3821 3876 3930 3979 4028 4082 4139 4199 4255 4298 4346 4393 4442 4491 4543 4611 4655 4693 4704 4716 4729 4746 4721 4684 4699 4706 4684 4669 4631 4604 4622 4633 4633 4607 4593 4571 4532 4516 4487 4433 4379 4344 4317 4288 4242 4195 4150 4101 4061 4003 3962 3975 3990 3993 3988 3987 3988 3989 3987 3992 3970 3937 3912 3883 3870 3877 3900 3909 3903 3891 3856 3805 3751 3697 3673 3663 3644 3609 3583 3567 3541 3507 3481 3454 3429 3408 3381 3347 3337 3369 3398 3425 3510 3580 3620 3658 3698 3710 3676 3664 3651 3653 3650 3633 3632 3632 3621 3579 3551 3512 3460 3426 3405 3381 3341 3354 3391 3402 3465 3469 3440 3469 3517 3570 3663 3753 3831 3899 3965 3998 3989 3985 4028 4068 4100 4115 4126 4139 4155 4155 4159 4156 4151 4140 4122 4109 4105 4101 4104 4112 4118 4102 4100 4126 4129 4119 4118 4119 4109 4102 4097 4093 4095 4093 4095 4110 4108 4102 4116 4138 4140 4141 4119 4097 4115 4119 4083 4062 4058 4071 4078 4097 4118 4136 4127 4116 4107 4102 4102 4093 4100 4103 4110 4119 4107 4096 4097 4096 4099 4124 4110 4099 4096 4102 4098 4093 4091 4092 4093 4095 4096 4103 4106 4115 4146 4155 4155 4156 4169 4179 4162 4149 4153 4159 4186 4182 4177 4191 4206 4195 4207 4206 4210 4206 4215 4231 4237 4252 4255 4252 4233 4220 4207 4200 4195 4193 4202 4212 4202 4185 4166 4158 4134 4132 4147 4159 4142 4141 4137 4125 4126 4113 4117 4103 4100 4098 4095 4089 4081 4090 4085 4100 4108 4115 4119 4143 4152 4136 4121 4117 4122 4138 4161 4164 4157 4153 4152 4149 4147 4146 4159 4169 4172 4170 4174 4155 4135 4114 4078 4032 4022 4015 3998 3986 3971 3983 4028 4057 4069 4054 4087 4061 4048 4044 4029 4006 3982 3972 3974 3956 3941 3941 4013 4022 3969 3961 3986 4010 4035 4050 4078 4094 4073 4053 4059 4071 4056 4050 4018 4005 3983 3963 3936 3913 3903 3905 3920 3932 3942 3964 3967 3979 4000
3549 3597 3634 3677 3716 3734 3741 3776 3813 3867 3886 3901 3907 3928 3946 3958 3940 3931 3921 3930 3941 3927 3927 3940 3947 3918 3875 3856 3848 3839 3839 3843 3856 3861 3872 3890 3892 3884 3875 3862 3879 3898 3904 3896 3890 3865 3890 3908 3928 3946 3958 3968 3971 3971 3990 4016 4020 4037 4064 4085 4091 4122 4146 4172 4200 4210 4211 4213 4225 4242 4267 4310 4352 4373 4369 4359 4363 4365 4360 4340 4332 4331 4323 4297 4289 4299 4317 4327 4347 4361 4373 4380 4400 4418 4437 4457 4461 4452 4426 4409 4368 4346 4337 4340 4342 4341 4337 4355 4367 4377 4369 4366 4390 4378 4391 4394 4408 4417 4417 4408 4394 4384 4384 4371 4363 4368 4360 4354 4345 4322 4334 4358 4387 4417 4449 4482 4496 4512 4483 4453 4452 4479 4485 4492 4491 4499 4513 4515 4464 4493 4515 4536 4544 4519 4470 4461 4482 4504 4493 4500 4510 4525 4556 4574 4606 4595 4587 4610 4626 4638 4644 4646 4642 4638 4641 4683 4722 4753 4778 4786 4784 4794 4796 4805 4810 4805 4804 4794 4791 4782 4770 4761 4752 4760 4777 4779 4712 4659 4589 4546 4514 4461 4382 4320 4257 4197 4130 4073 4020 4007 3972 3916 3874 3827 3778 3740 3686 3645 3670 3730 3784 3838 3899 3957 4000 4007 3975 3955 3925 3890 3872 3855 3846 3836 3843 3825 3766 3704 3640 3606 3643 3727 3775 3813 3861 3910 3959 4007 4057 4115 4187 4259 4300 4340 4382 4418 4465 4518 4569 4627 4671 4701 4725 4737 4753 4763 4762 4749 4737 4721 4695 4666 4626 4621 4655 4663 4641 4622 4601 4573 4552 4515 4497 4451 4434 4356 4326 4274 4223 4174 4141 4096 4051 4010 3992 4013 4037 4049 4044 4037 4045 4038 4024 4033 4014 3981 3965 3931 3935 3940 3944 3939 3908 3875 3844 3811 3719 3687 3660 3643 3617 3593 3569 3548 3533 3509 3475 3447 3441 3421 3396 3359 3335 3353 3375 3428 3493 3548 3584 3608 3633 3665 3665 3635 3628 3624 3617 3591 3590 3576 3554 3524 3502 3471 3434 3408 3371 3341 3376 3437 3473 3515 3539 3539 3510 3542 3587 3650 3718 3788 3861 3929 3986 4015 4013 3992 4029 4063 4092 4115 4128 4141 4157 4167 4168 4174 4165 4159 4134 4119 4115 4103 4108 4127 4138 4136 4124 4126 4142 4128 4133 4125 4118 4104 4101 4095 4091 4089 4089 4105 4126 4126 4140 4144 4115 4110 4095 4076 4086 4101 4073 4056 4050 4060 4059 4078 4103 4133 4136 4121 4108 4102 4098 4101 4096 4099 4100 4102 4100 4090 4094 4089 4098 4109 4099 4091 4095 4102 4096 4088 4090 4092 4094 4097 4102 4103 4105 4117 4128 4140 4150 4154 4169 4176 4146 4136 4143 4163 4176 4167 4163 4178 4185 4191 4194 4205 4207 4209 4212 4220 4229 4245 4248 4243 4230 4219 4209 4202 4198 4195 4205 4216 4220 4196 4176 4159 4148 4145 4153 4170 4168 4171 4166 4150 4143 4134 4130 4115 4107 4099 4095 4093 4083 4079 4083 4093 4100 4095 4109 4119 4136 4134 4122 4096 4091 4114 4148 4174 4178 4168 4158 4154 4153 4154 4163 4173 4167 4163 4166 4144 4120 4099 4075 4064 4052 4044 4026 4020 3986 3972 4005 4045 4026 4034 4054 4044 4048 4030 4012 3998 3999 3994 3981 3956 3933 3944 3986 3990 3940 3958 4015 4035 4029 4048 4074 4042 4027 4025 4051 4038 4018 4031 4024 4003 3989 3976 3962 3902 3902 3907 3917 3928 3933 3929 3945 3955 3988
3553 3588 3623 3661 3693 3710 3722 3743 3764 3834 3859 3870 3908 3910 3925 3934 3923 3907 3926 3939 3935 3911 3901 3897 3905 3888 3859 3843 3830 3816 3806 3815 3824 3842 3849 3859 3868 3870 3863 3850 3863 3885 3891 3866 3840 3856 3869 3886 3907 3920 3925 3930 3943 3967 3983 4003 4023 4053 4074 4091 4114 4130 4152 4181 4206 4211 4216 4229 4245 4258 4279 4315 4352 4386 4398 4400 4395 4387 4383 4366 4348 4349 4341 4325 4300 4316 4330 4351 4370 4379 4387 4395 4413 4435 4450 4466 4477 4487 4483 4474 4453 4399 4371 4374 4366 4356 4361 4378 4383 4396 4388 4392 4419 4422 4441 4432 4453 4445 4429 4424 4409 4399 4400 4393 4380 4374 4360 4348 4331 4320 4335 4350 4370 4400 4434 4462 4496 4506 4501 4438 4430 4427 4410 4410 4428 4431 4431 4430 4435 4458 4470 4481 4477 4441 4461 4504 4536 4562 4573 4576 4569 4592 4608 4622 4649 4647 4626 4652 4680 4690 4695 4690 4692 4673 4648 4661 4680 4718 4738 4739 4740 4744 4743 4746 4745 4747 4754 4748 4739 4730 4729 4731 4733 4735 4757 4771 4752 4687 4628 4566 4509 4472 4428 4379 4327 4266 4173 4097 4075 4051 4017 3952 3895 3856 3806 3752 3712 3692 3691 3739 3806 3860 3918 3973 4021 4036 4007 3982 3954 3943 3918 3890 3873 3870 3875 3852 3802 3744 3699 3688 3721 3812 3845 3874 3912 3949 3989 4033 4085 4146 4223 4300 4346 4402 4439 4478 4522 4565 4608 4656 4693 4715 4739 4763 4768 4775 4772 4753 4733 4711 4679 4649 4630 4646 4671 4682 4662 4638 4616 4581 4556 4518 4507 4491 4458 4371 4296 4228 4186 4151 4110 4071 4049 4040 4030 4041 4069 4076 4084 4077 4078 4069 4059 4052 4060 4023 3994 3979 3966 3947 3931 3907 3893 3853 3826 3790 3728 3672 3645 3613 3589 3583 3568 3554 3527 3500 3474 3446 3426 3411 3392 3370 3329 3339 3382 3436 3521 3543 3553 3554 3568 3592 3629 3620 3595 3588 3583 3558 3553 3549 3538 3508 3481 3445 3417 3375 3354 3376 3414 3482 3530 3586 3588 3586 3583 3612 3636 3727 3766 3823 3886 3949 4004 4037 4024 4003 4023 4062 4094 4112 4125 4144 4160 4172 4178 4186 4176 4169 4146 4132 4114 4108 4112 4121 4145 4155 4158 4140 4158 4143 4132 4124 4114 4107 4103 4097 4092 4085 4084 4102 4117 4114 4129 4135 4127 4093 4075 4056 4057 4068 4063 4045 4045 4049 4053 4069 4094 4106 4124 4117 4109 4104 4104 4100 4097 4095 4091 4096 4099 4094 4099 4103 4098 4091 4094 4090 4097 4091 4094 4091 4090 4089 4090 4095 4097 4098 4103 4105 4119 4123 4128 4129 4147 4158 4143 4132 4135 4158 4159 4159 4159 4171 4179 4186 4195 4202 4203 4207 4211 4222 4228 4240 4236 4230 4227 4212 4210 4205 4199 4198 4204 4218 4225 4220 4192 4170 4163 4170 4169 4169 4166 4159 4149 4142 4140 4144 4140 4120 4105 4100 4089 4092 4097 4090 4081 4080 4088 4084 4102 4117 4123 4132 4104 4084 4076 4097 4143 4173 4185 4174 4165 4161 4156 4153 4160 4161 4154 4157 4166 4144 4125 4115 4101 4082 4081 4062 4029 4012 3983 3961 3970 4000 4003 4014 4047 4027 4036 4045 4042 4024 4020 4015 4016 4005 3973 3925 3931 3944 3934 3969 4021 4032 4014 4049 4030 4013 4002 4024 4050 4021 3996 3998 4013 3996 3977 3963 3954 3916 3901 3905 3907 3911 3917 3931 3940 3966 3993
3535 3573 3610 3647 3674 3700 3719 3729 3749 3792 3827 3843 3870 3874 3888 3901 3901 3897 3916 3915 3914 3895 3881 3879 3881 3865 3832 3825 3811 3808 3797 3798 3805 3810 3818 3831 3838 3850 3855 3838 3845 3865 3859 3827 3811 3837 3844 3853 3870 3879 3907 3921 3947 3971 3977 4007 4043 4073 4089 4099 4116 4142 4172 4190 4211 4217 4227 4248 4262 4275 4295 4323 4342 4394 4423 4431 4416 4402 4403 4391 4378 4364 4361 4346 4328 4345 4365 4369 4382 4399 4410 4410 4419 4438 4458 4482 4493 4506 4510 4519 4508 4461 4424 4414 4391 4386 4401 4410 4410 4420 4439 4441 4456 4457 4466 4471 4465 4455 4445 4436 4433 4431 4419 4412 4394 4377 4348 4328 4316 4322 4336 4349 4363 4383 4417 4444 4477 4477 4439 4387 4385 4376 4386 4405 4421 4421 4412 4408 4414 4413 4425 4432 4440 4448 4485 4524 4549 4581 4608 4624 4630 4636 4666 4678 4689 4685 4671 4683 4720 4736 4731 4732 4724 4711 4684 4668 4654 4674 4689 4698 4691 4687 4690 4690 4697 4700 4710 4708 4712 4730 4749 4757 4754 4745 4734 4750 4758 4717 4660 4584 4534 4510 4487 4446 4387 4331 4246 4182 4129 4082 4049 4022 3936 3877 3830 3785 3751 3726 3734 3764 3815 3880 3936 3992 4031 4062 4064 4036 4007 3984 3960 3936 3916 3919 3914 3888 3834 3782 3750 3755 3815 3922 3920 3944 3975 4001 4030 4067 4116 4167 4223 4291 4367 4437 4496 4566 4595 4627 4651 4690 4720 4738 4755 4780 4795 4789 4779 4758 4732 4702 4663 4659 4650 4661 4689 4704 4678 4658 4622 4597 4558 4533 4525 4495 4442 4362 4323 4202 4178 4154 4141 4111 4104 4095 4075 4069 4088 4111 4115 4119 4119 4124 4107 4089 4077 4050 4016 3974 3947 3911 3888 3888 3876 3851 3804 3777 3728 3670 3645 3626 3609 3589 3571 3558 3536 3506 3478 3453 3437 3426 3408 3364 3326 3337 3428 3458 3490 3505 3510 3520 3544 3555 3587 3608 3582 3561 3554 3543 3524 3527 3523 3499 3476 3427 3395 3346 3400 3429 3453 3498 3564 3623 3666 3645 3653 3675 3727 3787 3813 3867 3922 3983 4029 4062 4039 4019 4016 4054 4090 4122 4135 4142 4168 4179 4187 4197 4188 4173 4161 4134 4117 4113 4115 4117 4120 4134 4142 4153 4168 4161 4153 4149 4127 4105 4102 4092 4086 4088 4087 4092 4097 4097 4110 4130 4132 4104 4087 4084 4057 4051 4043 4048 4040 4037 4052 4066 4073 4072 4100 4096 4114 4114 4103 4097 4099 4096 4095 4100 4098 4093 4097 4104 4101 4088 4086 4090 4085 4091 4089 4084 4085 4086 4092 4095 4096 4097 4101 4102 4108 4111 4114 4122 4133 4133 4128 4125 4140 4142 4141 4150 4158 4161 4172 4189 4201 4213 4216 4219 4222 4225 4227 4233 4232 4223 4215 4211 4209 4200 4205 4207 4205 4215 4219 4224 4213 4191 4173 4172 4158 4148 4140 4134 4129 4119 4118 4114 4114 4114 4104 4097 4093 4093 4086 4085 4079 4073 4070 4087 4095 4098 4116 4112 4099 4073 4073 4108 4145 4173 4185 4189 4181 4172 4166 4160 4154 4153 4150 4158 4161 4160 4156 4138 4114 4092 4074 4049 4020 3996 3990 3990 3970 3960 3957 3979 4036 4026 4016 4024 4044 4048 4046 4036 4039 4032 4006 3954 3924 3919 3935 3992 4020 3987 3996 4016 3991 3970 3998 4029 4050 4027 3995 3980 3974 3979 3962 3929 3940 3906 3897 3906 3912 3921 3940 3949 3958 3972 3986
3522 3558 3602 3626 3644 3681 3699 3713 3715 3767 3801 3818 3839 3843 3854 3888 3881 3886 3889 3887 3881 3867 3848 3866 3861 3849 3805 3795 3794 3785 3781 3774 3776 3775 3790 3807 3813 3830 3840 3834 3831 3836 3822 3788 3780 3791 3810 3816 3861 3887 3915 3930 3954 3974 3984 4027 4050 4073 4082 4116 4140 4170 4186 4199 4218 4233 4247 4261 4281 4297 4325 4347 4376 4385 4399 4411 4421 4429 4417 4405 4402 4391 4386 4372 4355 4368 4387 4388 4400 4415 4431 4430 4440 4462 4467 4485 4513 4519 4531 4539 4535 4525 4491 4461 4426 4416 4419 4428 4435 4447 4470 4469 4470 4481 4492 4479 4476 4466 4453 4445 4443 4432 4431 4425 4401 4377 4342 4317 4310 4325 4336 4351 4355 4367 4397 4424 4420 4393 4366 4365 4394 4420 4447 4465 4476 4489 4480 4466 4463 4460 4462 4472 4488 4469 4475 4509 4548 4584 4625 4649 4670 4679 4701 4703 4716 4720 4710 4708 4740 4761 4766 4764 4760 4739 4724 4699 4670 4654 4665 4674 4671 4688 4707 4715 4718 4710 4725 4747 4750 4756 4770 4775 4766 4752 4746 4744 4760 4742 4686 4637 4600 4565 4521 4473 4426 4384 4313 4273 4181 4151 4101 4052 4015 3958 3861 3816 3774 3753 3767 3795 3838 3896 3972 4039 4076 4098 4100 4075 4043 4024 4004 3984 3969 3960 3933 3892 3847 3802 3784 3811 3891 3971 3988 4012 4040 4064 4087 4119 4166 4210 4252 4311 4382 4457 4546 4640 4659 4675 4693 4716 4737 4751 4777 4794 4809 4805 4790 4758 4728 4693 4675 4680 4666 4676 4707 4712 4684 4663 4632 4601 4574 4546 4515 4479 4407 4344 4309 4284 4244 4209 4183 4170 4155 4136 4115 4104 4110 4128 4148 4155 4161 4169 4156 4142 4125 4093 3995 3967 3935 3900 3874 3863 3861 3833 3791 3748 3724 3713 3705 3683 3631 3617 3595 3577 3558 3545 3525 3490 3459 3427 3398 3361 3329 3320 3429 3437 3449 3462 3473 3501 3519 3539 3575 3602 3578 3554 3532 3522 3514 3506 3506 3471 3425 3406 3345 3349 3398 3452 3484 3529 3604 3648 3685 3729 3730 3763 3790 3823 3862 3930 4000 4049 4079 4077 4049 4032 4033 4058 4082 4136 4149 4165 4177 4189 4196 4203 4192 4191 4171 4148 4135 4128 4122 4121 4131 4149 4161 4161 4158 4153 4156 4152 4135 4123 4109 4099 4092 4087 4081 4086 4093 4107 4123 4108 4108 4127 4110 4077 4062 4057 4042 4040 4030 4032 4041 4052 4050 4063 4069 4081 4101 4109 4116 4107 4098 4095 4094 4093 4089 4087 4090 4088 4092 4086 4084 4083 4083 4085 4089 4086 4085 4089 4092 4094 4092 4097 4098 4099 4099 4106 4109 4118 4121 4124 4128 4128 4133 4137 4145 4157 4166 4177 4186 4193 4206 4217 4227 4229 4229 4235 4234 4228 4229 4225 4217 4207 4204 4207 4214 4210 4211 4217 4220 4225 4225 4203 4188 4174 4162 4151 4143 4140 4135 4127 4124 4122 4126 4120 4114 4105 4099 4093 4085 4087 4085 4076 4072 4068 4080 4088 4100 4108 4093 4068 4069 4099 4135 4167 4190 4192 4186 4174 4167 4162 4154 4148 4149 4147 4151 4150 4146 4122 4102 4077 4076 4067 4058 4033 4025 4009 3997 3985 3968 3959 3977 4028 4020 3994 4014 4026 4053 4067 4044 4018 3993 3986 3938 3919 3916 3956 3974 3944 3953 3963 3935 3972 4011 4031 4030 4008 3980 3975 3961 3963 3924 3905 3904 3896 3906 3913 3924 3921 3924 3954 3982 3993 4009
3527 3556 3596 3590 3613 3650 3680 3706 3728 3743 3757 3794 3830 3851 3873 3896 3874 3846 3847 3843 3844 3835 3818 3833 3832 3828 3796 3776 3767 3761 3757 3757 3759 3766 3783 3793 3800 3815 3830 3824 3812 3820 3800 3771 3749 3751 3777 3811 3862 3896 3925 3944 3963 3979 4012 4033 4055 4057 4063 4104 4132 4166 4184 4199 4214 4232 4262 4279 4299 4327 4356 4387 4407 4409 4398 4406 4419 4440 4448 4433 4415 4414 4411 4399 4393 4400 4410 4420 4425 4429 4431 4441 4452 4464 4472 4497 4523 4537 4541 4540 4567 4554 4522 4485 4479 4466 4442 4450 4457 4462 4480 4494 4497 4506 4504 4489 4484 4471 4462 4457 4447 4446 4431 4415 4388 4353 4336 4309 4313 4331 4337 4340 4346 4349 4369 4365 4348 4357 4380 4415 4444 4465 4492 4509 4525 4542 4539 4531 4520 4513 4520 4526 4530 4517 4505 4504 4549 4585 4619 4652 4682 4703 4717 4735 4747 4748 4749 4753 4768 4783 4796 4793 4786 4776 4755 4733 4705 4705 4712 4715 4717 4726 4745 4748 4738 4721 4746 4777 4782 4788 4795 4789 4775 4755 4753 4740 4752 4752 4728 4683 4633 4585 4532 4505 4468 4420 4388 4314 4261 4165 4128 4077 4057 4006 3923 3855 3809 3787 3794 3817 3862 3929 4031 4109 4141 4131 4127 4107 4092 4082 4052 4021 3990 3976 3946 3902 3861 3827 3814 3856 3927 3956 4030 4035 4092 4125 4153 4190 4240 4293 4336 4375 4420 4490 4567 4658 4684 4697 4711 4732 4758 4775 4792 4810 4826 4816 4790 4766 4725 4697 4704 4699 4674 4693 4703 4710 4686 4659 4633 4607 4581 4556 4496 4465 4434 4399 4365 4324 4273 4247 4220 4215 4189 4162 4146 4146 4141 4147 4170 4189 4221 4231 4217 4175 4130 4082 4035 3964 3924 3888 3857 3835 3822 3787 3762 3745 3750 3746 3723 3702 3668 3640 3624 3611 3590 3568 3542 3500 3462 3432 3390 3355 3322 3341 3383 3408 3430 3442 3452 3468 3499 3529 3568 3594 3603 3574 3537 3509 3505 3489 3468 3424 3415 3377 3339 3353 3385 3425 3481 3547 3612 3657 3704 3742 3772 3809 3847 3884 3950 4000 4063 4104 4104 4089 4066 4045 4032 4066 4099 4132 4160 4175 4188 4199 4208 4210 4212 4199 4191 4165 4145 4142 4139 4137 4163 4166 4159 4164 4163 4152 4146 4144 4145 4145 4121 4101 4091 4086 4078 4085 4091 4109 4125 4100 4081 4102 4091 4081 4072 4055 4047 4043 4035 4029 4031 4034 4032 4046 4049 4064 4076 4088 4099 4115 4115 4100 4100 4096 4090 4085 4080 4082 4082 4083 4081 4082 4077 4083 4082 4082 4084 4086 4089 4093 4097 4093 4098 4104 4100 4099 4109 4109 4111 4119 4118 4127 4134 4140 4146 4155 4173 4188 4204 4209 4217 4230 4230 4233 4231 4231 4232 4230 4226 4221 4216 4214 4212 4214 4222 4219 4216 4218 4222 4227 4233 4227 4211 4186 4170 4163 4160 4157 4163 4142 4145 4141 4151 4152 4134 4112 4102 4094 4096 4094 4088 4079 4081 4074 4070 4076 4085 4104 4091 4076 4065 4087 4109 4139 4170 4189 4185 4174 4165 4156 4153 4149 4144 4142 4147 4150 4130 4113 4088 4084 4086 4075 4074 4062 4047 4027 4029 4028 4012 3970 3950 3987 4026 4000 3985 4012 4031 4051 4051 4022 4002 3994 3991 3928 3910 3908 3917 3937 3914 3916 3974 4009 4013 4014 4003 3986 3966 3955 3940 3925 3904 3896 3896 3901 3924 3917 3950 3963 3949 3953 3988 3997 4010
3506 3491 3514 3540 3577 3616 3653 3705 3721 3736 3788 3815 3840 3880 3891 3901 3885 3854 3817 3817 3808 3797 3796 3806 3797 3794 3781 3765 3744 3739 3737 3741 3741 3743 3760 3776 3788 3800 3808 3809 3798 3785 3768 3746 3729 3747 3776 3815 3863 3909 3933 3933 3959 3983 4008 4041 4043 4036 4067 4097 4127 4145 4156 4176 4201 4219 4251 4273 4304 4326 4352 4375 4405 4427 4419 4410 4426 4450 4469 4471 4448 4436 4436 4428 4428 4425 4424 4435 4439 4436 4443 4446 4455 4465 4485 4506 4518 4542 4563 4581 4583 4555 4533 4512 4508 4504 4492 4478 4467 4481 4495 4500 4518 4527 4518 4494 4474 4466 4463 4459 4452 4443 4431 4410 4387 4351 4322 4305 4316 4327 4331 4327 4325 4326 4337 4343 4378 4412 4438 4463 4485 4513 4539 4554 4561 4567 4579 4577 4572 4574 4573 4574 4579 4565 4541 4521 4535 4580 4611 4651 4674 4705 4724 4745 4769 4779 4786 4785 4793 4806 4811 4819 4822 4805 4787 4766 4744 4745 4755 4760 4765 4768 4777 4779 4762 4742 4756 4790 4800 4805 4800 4790 4774 4759 4752 4746 4749 4751 4756 4722 4687 4642 4609 4552 4501 4457 4389 4341 4281 4180 4155 4125 4102 4051 3981 3911 3845 3819 3817 3855 3898 3981 4076 4158 4186 4177 4177 4165 4139 4099 4065 4033 3997 3991 3970 3936 3914 3873 3831 3865 3937 3975 4022 4067 4122 4161 4185 4245 4293 4351 4395 4435 4476 4537 4599 4666 4697 4707 4725 4750 4767 4797 4809 4822 4838 4829 4800 4767 4733 4715 4732 4717 4686 4707 4725 4712 4685 4657 4636 4606 4583 4538 4514 4507 4501 4455 4415 4367 4322 4289 4255 4238 4216 4195 4188 4186 4184 4193 4207 4213 4229 4257 4226 4175 4110 4072 4005 3947 3914 3874 3848 3838 3815 3795 3789 3764 3757 3748 3726 3701 3668 3640 3629 3616 3598 3554 3512 3467 3447 3414 3392 3359 3325 3333 3375 3400 3411 3427 3438 3461 3484 3503 3528 3563 3584 3595 3558 3525 3485 3470 3448 3415 3403 3366 3336 3350 3381 3422 3487 3554 3616 3671 3718 3753 3806 3845 3887 3930 3981 4024 4076 4105 4118 4103 4081 4067 4056 4067 4112 4146 4167 4185 4202 4215 4219 4220 4221 4213 4202 4177 4159 4160 4158 4161 4164 4161 4152 4151 4151 4151 4142 4137 4140 4129 4112 4097 4087 4086 4082 4083 4096 4117 4118 4089 4072 4101 4059 4070 4075 4064 4055 4046 4041 4033 4023 4023 4029 4036 4042 4047 4051 4054 4069 4097 4125 4127 4108 4096 4095 4090 4086 4081 4078 4079 4077 4080 4080 4086 4085 4083 4086 4088 4088 4095 4102 4102 4110 4111 4103 4103 4106 4108 4109 4111 4114 4119 4127 4136 4146 4158 4170 4192 4213 4223 4230 4234 4237 4236 4238 4240 4238 4237 4233 4227 4223 4221 4221 4227 4228 4228 4225 4223 4225 4230 4236 4241 4228 4203 4186 4176 4180 4176 4178 4169 4170 4170 4162 4140 4130 4115 4108 4097 4093 4087 4086 4084 4078 4078 4067 4066 4075 4090 4095 4073 4063 4075 4091 4116 4149 4177 4185 4175 4167 4165 4153 4146 4140 4136 4139 4137 4130 4101 4086 4097 4100 4080 4078 4081 4084 4057 4048 4040 4029 3999 3957 3948 3989 4003 3975 3979 4013 4029 4052 4042 4032 4017 4005 3985 3946 3903 3909 3906 3898 3907 3946 3960 3978 3989 3998 3981 3955 3907 3913 3903 3897 3897 3902 3906 3937 3969 3988 3995 3975 3987 4003 3997 4012
3312 3385 3424 3473 3525 3574 3622 3686 3770 3765 3768 3781 3807 3848 3865 3861 3848 3828 3800 3789 3780 3766 3765 3773 3763 3758 3759 3751 3734 3725 3727 3725 3734 3743 3753 3767 3777 3775 3773 3781 3771 3751 3740 3717 3742 3762 3785 3807 3842 3875 3890 3903 3937 3946 3972 4004 4011 4019 4055 4086 4111 4121 4139 4150 4175 4203 4229 4262 4298 4327 4349 4368 4397 4429 4429 4414 4426 4439 4458 4477 4478 4453 4446 4456 4448 4448 4450 4455 4448 4452 4454 4455 4460 4479 4491 4508 4524 4541 4557 4580 4577 4569 4552 4537 4537 4534 4526 4511 4502 4489 4509 4528 4549 4542 4521 4492 4470 4452 4445 4449 4446 4444 4439 4423 4392 4351 4316 4298 4298 4308 4307 4310 4316 4317 4340 4372 4405 4433 4451 4471 4487 4511 4535 4561 4578 4580 4586 4599 4612 4614 4611 4614 4614 4607 4593 4578 4548 4565 4603 4642 4660 4695 4722 4749 4773 4793 4806 4822 4815 4820 4831 4833 4838 4825 4804 4790 4786 4790 4795 4798 4803 4803 4799 4794 4781 4758 4764 4796 4804 4803 4803 4792 4773 4764 4755 4753 4754 4749 4762 4775 4729 4693 4631 4568 4514 4468 4401 4337 4296 4270 4231 4157 4108 4075 4022 3961 3895 3831 3830 3881 3956 4027 4095 4160 4203 4222 4226 4189 4153 4113 4070 4038 4011 3977 3953 3916 3893 3873 3873 3887 3937 3963 3989 4032 4059 4133 4195 4245 4289 4343 4398 4448 4496 4553 4611 4650 4701 4730 4749 4761 4788 4806 4829 4840 4848 4839 4811 4774 4744 4747 4754 4730 4706 4727 4739 4715 4685 4664 4633 4605 4576 4552 4547 4530 4517 4500 4463 4419 4372 4341 4304 4282 4245 4225 4231 4225 4233 4239 4249 4258 4249 4234 4195 4143 4102 4056 4005 3938 3921 3870 3861 3850 3831 3805 3780 3769 3751 3734 3713 3674 3648 3622 3609 3592 3560 3541 3538 3506 3463 3451 3427 3395 3340 3326 3356 3382 3389 3409 3412 3430 3458 3470 3501 3528 3561 3582 3569 3542 3492 3464 3432 3412 3400 3355 3337 3346 3380 3417 3496 3559 3625 3685 3732 3783 3842 3858 3898 3947 3981 4014 4056 4094 4109 4104 4090 4073 4075 4078 4118 4148 4176 4193 4217 4222 4224 4228 4226 4223 4219 4196 4176 4166 4159 4157 4152 4153 4147 4158 4145 4140 4141 4134 4139 4125 4104 4093 4083 4083 4079 4088 4107 4118 4096 4063 4054 4072 4042 4060 4065 4049 4054 4063 4050 4046 4028 3997 4021 4028 4027 4034 4035 4049 4058 4070 4084 4108 4138 4135 4127 4108 4090 4088 4086 4083 4079 4076 4084 4084 4081 4082 4083 4078 4094 4102 4105 4100 4111 4119 4122 4115 4108 4110 4110 4108 4118 4118 4127 4139 4148 4165 4178 4199 4217 4227 4231 4241 4244 4244 4242 4245 4247 4248 4248 4242 4234 4234 4230 4230 4241 4245 4246 4234 4238 4237 4249 4251 4248 4224 4205 4203 4206 4207 4204 4192 4180 4160 4137 4121 4111 4106 4098 4094 4092 4091 4082 4077 4078 4087 4071 4068 4067 4070 4085 4086 4063 4067 4081 4099 4123 4157 4178 4172 4160 4146 4140 4133 4128 4131 4139 4143 4131 4106 4117 4132 4119 4104 4108 4091 4087 4083 4064 4041 4026 4018 3988 3943 3954 3996 3986 3969 4000 4024 4019 4024 4028 4033 4022 4007 3987 3958 3960 3928 3912 3904 3901 3910 3975 4006 3988 3958 3946 3917 3883 3888 3890 3898 3916 3915 3916 3975 4003 4003 3997 4016 4020 4008 4012
3242 3298 3336 3396 3458 3520 3581 3644 3719 3744 3741 3753 3778 3815 3828 3823 3802 3782 3775 3767 3740 3729 3727 3736 3737 3739 3742 3734 3721 3714 3721 3714 3718 3731 3744 3750 3740 3739 3742 3757 3748 3735 3710 3707 3733 3752 3776 3792 3820 3844 3857 3871 3901 3921 3947 3964 3975 4003 4039 4071 4091 4099 4123 4149 4163 4191 4216 4244 4284 4315 4332 4353 4371 4393 4404 4399 4416 4422 4433 4439 4456 4463 4473 4472 4463 4463 4466 4465 4458 4461 4455 4460 4470 4479 4487 4506 4514 4546 4553 4550 4550 4550 4561 4556 4542 4547 4551 4542 4535 4514 4526 4541 4556 4541 4517 4486 4462 4440 4416 4420 4427 4429 4416 4398 4375 4326 4300 4294 4299 4302 4305 4309 4312 4328 4351 4366 4384 4417 4433 4446 4460 4491 4519 4543 4549 4553 4564 4572 4603 4622 4635 4641 4640 4639 4628 4611 4588 4570 4586 4616 4649 4684 4721 4749 4778 4803 4821 4833 4839 4845 4843 4848 4836 4823 4818 4813 4811 4817 4817 4821 4827 4826 4817 4808 4795 4780 4779 4803 4817 4811 4801 4795 4789 4778 4768 4758 4760 4753 4762 4775 4767 4707 4649 4595 4525 4473 4425 4414 4378 4337 4311 4198 4131 4065 4003 3943 3888 3862 3856 3920 3998 4052 4110 4165 4202 4231 4233 4195 4158 4116 4081 4063 4021 3981 3943 3890 3856 3843 3847 3857 3863 3916 3956 3993 4034 4082 4150 4207 4238 4325 4396 4455 4495 4537 4582 4620 4659 4726 4761 4779 4795 4825 4841 4858 4867 4844 4822 4790 4765 4776 4767 4739 4729 4755 4754 4723 4694 4665 4643 4600 4589 4583 4564 4544 4526 4510 4487 4452 4390 4357 4337 4311 4266 4251 4252 4253 4259 4276 4282 4270 4234 4206 4170 4126 4099 4038 4011 3948 3910 3885 3866 3858 3840 3820 3793 3776 3763 3743 3719 3692 3669 3643 3619 3602 3592 3583 3558 3511 3502 3492 3458 3430 3380 3337 3327 3344 3342 3381 3394 3409 3429 3455 3482 3502 3528 3536 3534 3516 3488 3444 3424 3407 3384 3346 3338 3360 3426 3473 3528 3591 3643 3700 3761 3810 3837 3861 3895 3923 3945 3988 4041 4081 4089 4083 4080 4082 4102 4099 4130 4152 4187 4201 4228 4231 4240 4240 4239 4229 4218 4197 4177 4166 4172 4161 4156 4155 4140 4144 4143 4135 4132 4135 4123 4109 4100 4090 4081 4078 4078 4085 4087 4104 4087 4056 4032 4025 4024 4043 4046 4027 4006 4010 3999 3964 3927 3906 3979 4036 4038 4051 4040 4044 4049 4053 4068 4094 4115 4117 4130 4110 4097 4093 4094 4096 4086 4076 4079 4084 4076 4082 4081 4083 4087 4090 4093 4093 4093 4101 4109 4122 4120 4116 4109 4112 4119 4119 4127 4141 4153 4166 4187 4204 4222 4231 4238 4248 4252 4252 4255 4256 4260 4262 4265 4257 4250 4245 4244 4243 4246 4257 4264 4251 4253 4250 4253 4261 4257 4243 4235 4234 4219 4205 4189 4161 4145 4133 4118 4116 4110 4112 4104 4095 4104 4093 4088 4087 4089 4079 4073 4070 4068 4062 4068 4073 4058 4060 4069 4087 4101 4133 4162 4171 4161 4137 4119 4124 4126 4121 4127 4133 4144 4139 4128 4116 4126 4125 4132 4124 4109 4094 4086 4062 4018 3997 3975 3957 3935 3959 3959 3949 3976 3993 3978 3984 3994 4010 4010 4024 4017 4001 3983 3982 3941 3897 3902 3894 3946 3981 3972 3947 3915 3891 3896 3895 3897 3902 3904 3954 3970 3989 4008 4020 4015 4032 4030 4022 4028
